526002.875 4694134.501 0.000
526003.409 4694134.153 0.000
526003.659 4694133.982 0.000
526003.942 4694133.792 0.000
526014.714 4694126.773 0.000
526002.393 4694135.041 0.000
526003.259 4694134.481 0.000
526003.540 4694134.298 0.000
526004.071 4694133.942 0.000
526012.807 4694128.237 0.000
526002.640 4694136.252 0.000
526002.942 4694136.063 0.000
526003.210 4694135.887 0.000
526002.484 4694135.554 0.000
526003.317 4694135.008 0.000
526003.547 4694134.846 0.000
526004.130 4694134.470 0.000
526002.730 4694136.658 0.000
526004.378 4694135.578 0.000
526004.809 4694136.091 0.000
526003.738 4694136.397 0.000
526004.620 4694135.830 0.000
526004.200 4694137.170 0.000
526010.370 4694133.129 0.000
526010.231 4694133.034 0.000
526005.094 4694137.199 0.000
526005.862 4694136.685 0.000
526006.858 4694137.624 0.000
526010.007 4694135.578 0.000
526010.288 4694135.396 0.000
526010.524 4694135.227 0.000
526010.809 4694135.039 0.000
526011.679 4694134.471 0.000
526004.434 4694138.461 0.000
526010.067 4694134.781 0.000
526010.344 4694134.594 0.000
526010.589 4694134.426 0.000
526011.137 4694134.066 0.000
526010.494 4694135.505 0.000
526010.735 4694135.330 0.000
526012.141 4694134.407 0.000
526020.502 4694129.782 0.062
526020.773 4694129.597 0.070
526021.059 4694129.411 0.000
526010.012 4694135.971 0.000
526010.280 4694135.790 0.000
526010.551 4694135.613 0.000
526010.816 4694135.429 0.000
526011.371 4694135.063 0.000
526012.205 4694134.518 0.000
526010.498 4694137.411 0.000
526010.785 4694137.226 0.000
526011.059 4694137.046 0.000
526007.282 4694138.465 0.000
526009.777 4694136.826 0.000
526010.105 4694136.620 0.000
526010.370 4694136.438 0.000
526010.641 4694136.260 0.000
526010.935 4694136.067 0.000
526011.175 4694135.899 0.000
526011.440 4694135.723 0.000
526011.929 4694135.379 0.000
526000.366 4694144.035 0.000
526001.466 4694143.314 0.000
526008.806 4694138.519 0.000
526009.315 4694138.502 0.000
526012.439 4694136.525 0.000
526000.041 4694144.811 1.207
526001.112 4694144.273 0.000
526009.753 4694138.601 0.000
526000.099 4694145.681 0.000
526000.683 4694145.309 0.000
526001.534 4694144.754 0.000
526002.653 4694144.019 0.000
526026.899 4694128.089 0.000
526000.608 4694146.131 0.000
526001.747 4694145.387 0.000
526002.264 4694145.034 0.000
526002.562 4694144.849 0.000
526002.846 4694144.665 0.000
526003.653 4694144.122 0.000
526000.780 4694146.354 0.000
526001.596 4694145.814 0.000
526001.872 4694145.636 0.000
526002.410 4694145.276 0.000
526002.718 4694145.078 0.000
526003.550 4694144.534 0.000
526003.822 4694144.355 0.000
526027.771 4694128.615 0.029
526030.934 4694127.478 0.000
526002.359 4694145.758 0.000
526002.616 4694145.585 0.000
526002.906 4694145.402 0.000
526003.789 4694144.833 0.000
526004.063 4694144.655 0.000
526002.636 4694146.054 0.000
526002.940 4694145.859 0.000
526004.087 4694145.122 0.000
526004.376 4694144.938 0.000
526017.764 4694136.114 0.156
526004.357 4694145.997 0.000
526004.625 4694145.821 0.000
526003.210 4694146.128 0.000
526004.082 4694145.563 0.000
526004.343 4694145.387 0.000
526004.523 4694146.672 0.000
526004.794 4694146.491 0.000
526018.841 4694137.261 0.049
526033.966 4694127.320 0.027
526010.824 4694143.207 0.000
526019.249 4694137.657 0.000
526010.039 4694144.400 0.000
526019.302 4694138.304 0.000
526010.996 4694143.335 0.000
526018.843 4694138.168 0.000
526009.063 4694145.883 0.000
526009.887 4694145.337 0.000
526010.158 4694145.160 0.000
526010.429 4694144.983 0.000
526010.711 4694144.792 0.000
526010.764 4694145.262 0.000
526025.965 4694135.250 0.000
526026.048 4694135.370 0.000
526004.655 4694149.608 0.000
526026.053 4694135.525 0.000
526020.455 4694139.979 0.000
526025.829 4694136.429 0.000
526026.119 4694136.239 0.000
526026.390 4694136.063 0.000
526028.654 4694134.561 0.000
526042.921 4694149.843 0.000
526042.129 4694148.987 0.994
526041.334 4694149.321 0.000
526041.916 4694148.941 0.000
526042.528 4694148.542 0.000
526041.090 4694148.541 0.000
526040.732 4694148.576 1.326
526041.934 4694147.981 0.000
526042.243 4694147.776 0.000
526041.736 4694147.647 0.000
526042.017 4694147.462 0.000
526042.301 4694147.273 0.000
526039.291 4694148.850 0.000
526039.562 4694148.671 0.000
526039.895 4694148.459 0.000
526040.206 4694148.258 0.000
526040.462 4694148.080 0.000
526041.340 4694147.507 0.000
526041.582 4694147.335 0.000
526041.610 4694147.135 1.253
526042.186 4694146.934 0.000
526039.009 4694148.469 0.000
526040.458 4694147.519 0.000
526040.774 4694147.315 0.000
526041.074 4694147.116 0.000
526041.328 4694146.943 0.000
526041.614 4694146.748 0.000
526041.910 4694146.556 0.000
526036.468 4694149.577 0.000
526036.738 4694149.396 0.000
526037.279 4694149.036 0.000
526039.318 4694147.693 0.000
526039.592 4694147.508 0.000
526040.194 4694147.116 0.000
526041.628 4694146.164 0.000
526036.122 4694149.595 0.000
526039.583 4694147.306 0.000
526040.142 4694146.938 0.000
526040.423 4694146.754 0.000
526040.722 4694146.553 0.000
526041.284 4694146.178 0.000
526041.574 4694145.984 0.000
526035.484 4694149.852 0.000
526035.808 4694149.645 0.000
526039.514 4694147.196 0.000
526039.813 4694146.996 0.000
526040.713 4694146.407 0.000
526041.847 4694145.656 0.000
526035.207 4694149.443 0.000
526035.799 4694149.060 0.000
526034.753 4694148.890 0.000
526035.002 4694147.871 0.000
526035.005 4694147.716 0.000
526035.286 4694147.522 0.000
526041.644 4694143.238 0.000
526042.196 4694141.413 0.000
526042.755 4694141.040 0.000
526043.216 4694140.431 2.257
526037.832 4694143.374 0.000
526038.146 4694143.171 0.000
526038.669 4694143.250 0.000
526039.279 4694142.859 0.000
526038.381 4694142.261 0.895
526035.747 4694142.381 0.000
526035.966 4694141.533 0.000
526035.923 4694142.144 0.847
526029.378 4694145.835 0.142
526035.525 4694141.821 0.000
526029.640 4694145.467 0.060
526031.187 4694144.118 2.474
526032.248 4694143.754 0.000
526037.457 4694140.335 0.000
526035.658 4694140.764 0.000
526036.472 4694140.222 0.000
526037.326 4694139.652 0.000
526036.889 4694138.903 0.000
526038.376 4694137.928 0.000
526038.574 4694137.689 0.763
526037.326 4694137.435 0.000
526017.444 4694149.950 0.000
526041.963 4694131.629 0.000
526042.238 4694131.449 0.000
526027.651 4694140.568 0.000
526012.835 4694149.987 0.000
526013.446 4694149.593 0.000
526026.608 4694140.890 0.000
526027.201 4694140.502 0.000
526028.937 4694139.369 0.000
526030.947 4694138.047 0.000
526037.255 4694133.885 0.000
526037.559 4694133.695 0.000
526039.845 4694132.178 0.000
526041.624 4694131.021 0.000
526041.937 4694130.818 0.000
526041.220 4694131.636 0.000
526041.793 4694131.261 0.000
526029.881 4694138.434 0.000
526030.495 4694138.044 0.000
526036.787 4694133.385 0.000
526039.420 4694131.658 0.000
526039.708 4694131.468 0.000
526039.987 4694131.282 0.000
526039.686 4694131.993 0.000
526039.968 4694131.801 0.000
526011.581 4694149.317 0.000
526011.855 4694149.129 0.000
526026.145 4694139.679 0.000
526026.433 4694139.489 0.000
526026.695 4694139.310 0.000
526029.297 4694137.615 0.000
526029.864 4694137.232 0.000
526027.022 4694139.807 0.000
526030.171 4694137.741 0.000
526039.116 4694131.158 0.000
526027.994 4694137.093 0.000
526029.677 4694135.980 0.000
526029.989 4694135.777 0.000
526011.508 4694148.640 0.000
526025.250 4694139.554 0.000
526026.049 4694139.022 0.000
526026.931 4694138.443 0.000
526028.879 4694137.144 0.000
526029.195 4694136.942 0.000
526029.478 4694136.758 0.000
526030.036 4694136.391 0.000
526030.337 4694136.193 0.000
526011.710 4694147.855 0.066
526022.356 4694140.824 0.000
526026.614 4694137.315 0.000
526028.599 4694136.006 0.000
526030.094 4694135.032 0.000
526017.438 4694143.666 0.080
526019.171 4694142.536 0.000
526021.923 4694140.706 0.000
526026.430 4694137.718 0.000
526026.684 4694137.546 0.000
526027.544 4694136.980 0.000
526028.077 4694136.617 0.000
526011.210 4694147.502 0.000
526018.505 4694142.688 0.042
526019.065 4694142.324 0.000
526021.600 4694140.641 0.000
526005.334 4694149.932 0.000
526010.139 4694146.789 0.000
526016.628 4694143.019 2.127
526026.271 4694136.941 0.000
526027.649 4694136.024 0.000
526043.721 4694148.687 0.000
526043.664 4694147.789 0.000
526043.376 4694148.190 0.668
526044.041 4694147.865 0.000
526049.613 4694137.454 0.000
526048.102 4694136.725 2.365
526043.509 4694137.843 0.000
526045.499 4694131.153 0.000
526045.054 4694130.921 1.189
526049.358 4694127.599 0.000
526046.061 4694124.810 0.000
526046.237 4694125.099 0.000
526046.606 4694125.501 0.000
526042.905 4694109.725 16.553
526040.234 4694111.350 9.451
526041.898 4694110.150 13.113
526043.053 4694109.461 16.516
526041.290 4694108.865 10.610
526040.454 4694110.312 9.787
526042.946 4694108.246 13.294
526041.114 4694110.344 9.669
526041.695 4694109.562 12.749
526038.908 4694110.851 0.000
526037.612 4694111.883 0.000
526038.545 4694111.283 0.000
526038.862 4694111.090 0.000
526040.077 4694110.313 0.000
526036.473 4694110.991 12.331
526038.006 4694111.825 0.000
526040.751 4694108.594 11.178
526038.975 4694111.772 0.000
526039.844 4694111.202 0.000
526040.235 4694109.659 9.810
526035.165 4694109.411 16.116
526040.207 4694106.722 12.020
526037.894 4694109.782 0.000
526038.485 4694109.398 0.000
526038.754 4694109.218 0.000
526034.222 4694110.487 14.688
526042.888 4694106.684 1.284
526038.012 4694109.981 0.000
526038.296 4694109.797 0.000
526035.302 4694110.290 16.269
526037.143 4694111.247 0.000
526037.457 4694111.050 0.000
526037.768 4694110.849 0.000
526038.382 4694110.457 0.000
526038.662 4694110.266 0.000
526038.190 4694106.880 13.526
526040.464 4694105.542 12.619
526030.782 4694111.407 15.136
526038.579 4694108.287 0.788
526034.891 4694108.915 14.080
526035.210 4694108.717 13.945
526039.720 4694107.072 10.091
526035.063 4694108.164 10.631
526040.564 4694106.036 0.000
526041.183 4694105.641 0.000
526041.510 4694105.436 0.000
526043.057 4694104.453 0.000
526039.304 4694104.969 14.494
526034.760 4694108.462 12.826
526041.678 4694105.722 0.000
526041.999 4694105.526 0.000
526040.355 4694104.922 12.618
526039.635 4694105.115 14.731
526029.924 4694110.742 14.742
526037.557 4694107.769 0.000
526035.646 4694107.817 9.071
526041.606 4694105.192 0.000
526037.156 4694106.604 11.017
526038.623 4694105.015 16.059
526029.219 4694111.537 13.436
526031.046 4694110.298 13.954
526042.156 4694103.626 0.000
526037.166 4694107.376 0.000
526041.217 4694104.803 0.000
526041.799 4694104.421 0.000
526036.988 4694105.898 12.250
526043.030 4694103.637 0.000
526037.481 4694105.154 15.404
526039.349 4694103.976 15.599
526029.855 4694110.157 14.420
526038.084 4694103.701 16.310
526037.636 4694104.445 15.761
526038.188 4694103.992 16.604
526040.057 4694103.213 13.439
526032.342 4694109.154 0.084
526030.124 4694109.228 10.308
526035.425 4694107.193 0.000
526029.632 4694109.247 12.621
526028.326 4694110.549 11.576
526028.926 4694109.996 12.852
526029.829 4694109.426 12.748
526041.272 4694103.795 0.000
526035.651 4694106.665 0.000
526031.754 4694108.059 11.412
526031.463 4694107.842 14.464
526041.968 4694103.041 0.000
526042.258 4694102.852 0.000
526038.245 4694103.395 15.551
526039.002 4694103.027 14.651
526038.981 4694102.325 14.161
526040.684 4694103.479 0.000
526041.929 4694102.691 0.000
526042.417 4694102.346 0.164
526037.919 4694103.305 14.961
526038.237 4694103.029 15.515
526027.878 4694110.251 10.711
526034.191 4694107.606 0.000
526034.492 4694107.417 0.000
526023.256 4694111.884 13.743
526022.962 4694111.915 14.956
526023.623 4694111.589 14.142
526028.901 4694108.852 9.144
526027.986 4694109.710 10.977
526034.443 4694107.017 0.000
526035.417 4694106.410 0.000
526036.383 4694105.804 0.000
526031.376 4694106.844 16.464
526031.751 4694106.704 15.766
526040.716 4694103.050 0.000
526041.013 4694102.859 0.000
526025.966 4694109.560 13.187
526034.411 4694105.885 0.000
526029.330 4694108.122 12.724
526034.194 4694105.023 12.737
526034.326 4694104.900 13.068
526041.129 4694102.274 0.000
526036.492 4694103.604 12.492
526038.344 4694102.349 13.121
526030.633 4694106.232 15.983
526032.950 4694105.042 13.663
526033.816 4694104.322 14.822
526037.815 4694102.029 13.184
526038.643 4694101.637 12.051
526026.485 4694110.933 0.000
526022.757 4694110.712 14.584
526033.555 4694105.697 0.000
526031.292 4694105.387 14.391
526032.054 4694105.104 12.822
526041.385 4694100.821 0.000
526022.721 4694110.686 14.607
526029.373 4694106.588 13.691
526030.169 4694105.888 15.252
526033.221 4694103.796 16.320
526022.674 4694110.296 14.688
526024.201 4694109.491 13.274
526033.137 4694103.376 16.516
526041.313 4694100.329 0.000
526037.680 4694101.123 11.773
526024.884 4694107.320 13.390
526025.387 4694107.135 12.330
526035.615 4694102.225 0.000
526037.546 4694100.389 10.862
526036.926 4694100.542 12.618
526021.290 4694110.665 11.479
526021.622 4694109.648 11.603
526027.010 4694107.689 0.000
526027.348 4694107.479 0.000
526027.957 4694107.091 0.000
526023.720 4694108.229 12.114
526023.948 4694108.068 12.248
526024.672 4694107.190 13.091
526035.518 4694101.973 0.000
526021.467 4694109.561 11.502
526027.140 4694107.427 0.000
526018.179 4694111.220 13.928
526017.298 4694111.716 15.597
526027.877 4694105.987 0.273
526026.848 4694105.710 13.606
526032.221 4694102.369 13.096
526021.344 4694108.523 12.990
526016.229 4694111.247 11.859
526022.778 4694108.488 0.734
526019.746 4694109.160 10.585
526026.155 4694106.434 0.000
526034.851 4694101.624 0.000
526035.152 4694101.434 0.000
526036.057 4694100.850 0.000
526027.957 4694105.278 0.000
526021.267 4694107.631 14.889
526028.278 4694105.080 0.000
526021.763 4694107.369 14.426
526028.580 4694104.886 0.000
526029.468 4694104.320 0.000
526030.397 4694103.730 0.102
526034.454 4694101.166 0.000
526034.865 4694100.853 0.369
526032.153 4694101.372 9.564
526020.203 4694108.043 13.934
526028.538 4694104.526 0.000
526028.821 4694104.336 0.000
526030.078 4694103.551 0.000
526029.033 4694102.389 14.081
526028.392 4694104.071 0.000
526028.675 4694103.889 0.000
526029.939 4694103.097 0.000
526034.544 4694100.165 0.000
526017.174 4694110.278 11.617
526019.460 4694108.304 11.299
526018.969 4694109.592 0.662
526017.133 4694109.824 8.127
526030.574 4694102.316 0.000
526020.964 4694106.133 15.302
526025.745 4694102.854 17.116
526027.833 4694102.001 13.425
526018.730 4694109.411 0.759
526020.308 4694106.215 15.230
526017.897 4694109.442 0.000
526015.221 4694110.135 7.807
526018.770 4694108.875 0.000
526023.684 4694104.577 11.310
526025.136 4694102.993 16.368
526029.610 4694101.972 0.000
526031.446 4694100.813 0.000
526025.628 4694102.455 16.031
526027.664 4694101.389 14.239
526023.956 4694104.069 8.120
526023.999 4694103.320 13.637
526024.394 4694102.943 14.633
526031.450 4694100.359 0.000
526024.849 4694102.610 15.047
526026.995 4694101.096 16.219
526027.194 4694100.866 17.038
526016.130 4694110.120 0.000
526016.926 4694109.498 0.688
526015.483 4694110.026 0.766
526015.862 4694109.893 0.000
526010.808 4694111.585 11.822
526017.048 4694109.133 0.000
526018.179 4694108.802 0.000
526023.114 4694105.532 1.028
526015.414 4694108.625 11.944
526015.617 4694108.472 12.106
526020.205 4694105.349 13.660
526031.194 4694100.123 0.000
526013.204 4694111.589 0.000
526030.271 4694100.274 0.000
526012.567 4694111.546 0.000
526013.491 4694110.802 1.131
526014.488 4694109.787 7.529
526014.763 4694109.605 7.628
526018.242 4694108.372 0.000
526018.536 4694108.185 0.000
526010.267 4694111.095 14.817
526016.992 4694108.718 0.000
526014.239 4694109.525 7.330
526017.571 4694108.345 0.000
526014.358 4694108.577 14.137
526014.561 4694108.417 14.317
526019.832 4694105.301 12.439
526016.518 4694108.511 0.000
526016.824 4694108.321 0.000
526017.144 4694108.126 0.000
526013.727 4694109.083 9.430
526018.045 4694107.551 0.000
526018.353 4694107.351 0.000
526013.788 4694108.561 13.189
526021.974 4694105.055 0.000
526029.534 4694100.251 0.000
526012.450 4694111.125 0.000
526009.584 4694110.961 15.381
526008.468 4694111.526 13.510
526014.821 4694109.211 0.000
526009.442 4694110.524 16.303
526017.167 4694107.705 0.000
526018.336 4694106.959 0.000
526014.341 4694107.470 15.732
526019.713 4694104.969 8.665
526022.076 4694102.973 12.432
526025.948 4694100.504 12.559
526008.104 4694111.826 12.943
526009.131 4694110.594 16.131
526010.761 4694109.859 13.829
526017.676 4694107.241 0.000
526015.409 4694106.882 13.790
526021.831 4694104.586 0.110
526021.992 4694102.879 12.427
526022.169 4694102.730 12.715
526025.026 4694101.208 10.530
526012.920 4694108.760 9.078
526017.045 4694107.305 0.000
526017.345 4694107.116 0.000
526017.920 4694106.749 0.000
526020.601 4694103.465 12.191
526022.565 4694103.039 0.000
526022.852 4694102.856 0.000
526023.160 4694102.656 0.000
526019.985 4694103.061 12.428
526020.664 4694102.246 15.399
526020.982 4694102.045 15.450
526021.146 4694101.908 15.681
526018.264 4694105.748 0.000
526007.744 4694109.862 13.242
526023.553 4694101.488 0.000
526019.093 4694103.014 10.154
526019.557 4694102.846 9.183
526024.499 4694100.890 0.000
526019.547 4694102.363 12.969
526021.020 4694100.853 17.331
526007.291 4694111.880 0.000
526003.551 4694111.782 16.376
526011.979 4694108.501 0.000
526009.254 4694108.699 11.853
526012.637 4694106.343 13.461
526013.235 4694105.806 14.698
526019.285 4694102.076 13.720
526013.427 4694105.827 14.771
526018.673 4694103.046 10.448
526023.917 4694101.078 0.000
526024.239 4694100.872 0.000
526007.014 4694111.862 0.000
526003.812 4694111.782 16.280
526004.723 4694111.378 14.859
526005.328 4694111.167 13.480
526006.998 4694111.586 0.000
526005.309 4694110.901 13.456
526011.900 4694108.442 0.000
526021.570 4694100.525 15.712
526016.977 4694105.211 0.000
526023.281 4694101.203 0.000
526024.477 4694100.443 0.000
526024.067 4694100.002 0.000
526003.585 4694110.929 16.366
526011.785 4694107.813 0.000
526018.632 4694103.456 0.000
526012.908 4694105.412 12.939
526003.482 4694110.597 15.980
526004.775 4694110.068 13.610
526012.034 4694106.016 9.222
526018.043 4694103.390 0.000
526014.298 4694104.552 9.293
526013.221 4694104.771 12.906
526005.929 4694111.105 0.000
526003.823 4694110.212 14.982
526004.698 4694109.818 13.687
526010.698 4694107.560 1.638
526009.798 4694106.867 11.420
526010.251 4694106.538 11.639
526012.808 4694104.814 12.408
526019.146 4694100.822 12.041
526003.399 4694110.189 14.539
526003.813 4694109.955 14.139
526005.039 4694109.529 11.525
526013.246 4694104.486 12.777
526017.336 4694103.203 0.000
526017.636 4694103.013 0.000
526014.334 4694103.849 9.650
526009.915 4694106.414 11.504
526015.524 4694104.348 0.000
526002.956 4694109.956 14.668
526004.176 4694109.452 12.397
526009.788 4694107.502 0.000
526009.722 4694105.584 15.019
526010.156 4694105.266 15.309
526011.915 4694104.561 12.193
526017.852 4694102.377 0.000
526001.956 4694110.330 13.135
526009.251 4694107.380 0.000
526009.229 4694105.535 14.145
526017.004 4694102.456 0.000
526011.076 4694104.216 15.237
526012.189 4694103.745 13.483
526007.271 4694107.890 0.000
526003.987 4694108.600 10.745
526008.773 4694106.935 0.000
526009.049 4694106.758 0.000
526013.485 4694103.931 0.000
526014.692 4694103.160 0.000
526018.947 4694100.472 0.000
526014.165 4694101.768 13.253
526014.989 4694101.473 11.560
526014.348 4694101.537 14.107
526001.002 4694111.241 0.000
526006.521 4694107.712 0.000
526006.810 4694107.528 0.000
526004.202 4694108.012 9.041
526008.813 4694106.236 0.000
526013.285 4694103.394 0.000
526008.198 4694104.776 14.287
526014.800 4694102.438 0.000
526015.120 4694102.241 0.000
526012.664 4694102.036 13.487
526013.661 4694101.107 15.727
526014.647 4694100.677 14.291
526000.789 4694111.158 0.000
526006.343 4694107.605 0.000
526007.193 4694107.058 0.000
526008.604 4694106.139 0.000
526012.771 4694103.492 0.000
526013.074 4694103.302 0.000
526013.377 4694103.108 0.000
526014.894 4694102.151 0.000
526007.399 4694106.739 0.000
526012.977 4694103.170 0.000
526013.277 4694102.978 0.000
526010.514 4694102.460 17.537
526012.979 4694101.170 15.342
526013.419 4694100.764 16.291
526000.350 4694110.852 0.000
526004.702 4694108.065 0.076
526006.459 4694106.940 0.000
526008.500 4694105.634 0.000
526003.336 4694107.258 12.765
526012.900 4694102.817 0.000
526008.175 4694103.976 14.192
526013.659 4694100.047 17.593
526000.143 4694110.146 0.000
526001.022 4694109.586 0.000
526001.884 4694109.026 0.000
526001.404 4694107.411 14.634
526005.804 4694105.801 0.000
526000.315 4694109.327 0.000
526000.877 4694108.959 0.000
526001.188 4694108.761 0.000
526009.322 4694101.639 14.832
526009.732 4694101.493 14.029
526004.349 4694106.576 1.320
526008.740 4694101.727 14.825
526000.041 4694109.239 0.000
526000.320 4694109.054 0.000
526000.918 4694108.677 0.000
526001.212 4694108.485 0.000
526001.245 4694106.439 15.341
526004.745 4694105.570 0.052
526000.164 4694106.474 15.455
526000.985 4694105.774 16.692
526002.715 4694104.834 15.506
526003.491 4694105.688 0.000
526004.741 4694102.901 13.866
526002.053 4694104.421 15.251
526004.238 4694105.100 0.000
526004.491 4694104.928 0.090
526000.447 4694104.894 14.373
526001.908 4694103.229 14.077
526002.494 4694102.941 13.493
526007.218 4694101.279 0.000
526001.663 4694103.053 13.423
526008.378 4694100.538 0.000
526002.690 4694102.357 13.691
526004.793 4694100.712 15.987
526008.207 4694100.356 0.000
526003.102 4694101.315 17.288
526006.657 4694101.330 0.000
526006.989 4694101.128 0.000
526007.307 4694100.928 0.000
526001.171 4694102.705 11.924
526006.903 4694100.622 0.000
526007.508 4694100.245 0.000
526005.774 4694100.755 0.000
526006.053 4694100.576 0.000
526006.939 4694100.012 0.000
526005.718 4694100.603 0.000
526006.012 4694100.415 0.000
526006.322 4694100.216 0.000
526002.748 4694100.210 17.369
526000.666 4694102.226 0.609
526001.229 4694101.921 0.000
526000.100 4694101.939 0.000
526000.645 4694101.585 0.000
526049.925 4694111.979 0.000
526048.077 4694111.819 0.000
526048.328 4694111.648 0.000
526049.031 4694111.210 0.000
526049.309 4694111.025 0.000
526049.626 4694110.824 0.000
526047.411 4694111.557 0.000
526048.058 4694111.151 0.000
526049.169 4694110.405 0.000
526048.934 4694110.574 0.000
526047.351 4694111.455 0.000
526048.893 4694110.465 0.000
526049.449 4694110.090 0.000
526047.434 4694111.147 0.000
526047.776 4694110.934 0.000
526048.069 4694110.744 0.000
526048.665 4694110.354 0.000
526049.149 4694110.010 0.000
526049.952 4694109.537 0.000
526045.424 4694111.703 0.000
526045.693 4694111.526 0.000
526047.566 4694110.325 0.000
526047.883 4694110.124 0.000
526044.669 4694110.507 12.587
526044.931 4694111.187 0.000
526045.241 4694110.990 0.000
526047.100 4694109.795 0.000
526047.726 4694109.396 0.000
526044.644 4694110.781 0.000
526045.233 4694110.402 0.000
526047.403 4694109.009 0.000
526047.702 4694108.815 0.000
526049.590 4694107.611 0.000
526045.808 4694109.732 0.961
526046.334 4694109.535 0.000
526046.653 4694109.330 0.000
526046.874 4694109.160 0.000
526047.584 4694108.730 0.000
526044.305 4694108.679 12.644
526049.582 4694105.639 10.083
526049.336 4694105.010 13.210
526047.433 4694107.572 0.000
526048.046 4694107.180 0.000
526046.151 4694107.941 0.000
526046.477 4694107.733 0.000
526047.126 4694107.328 0.000
526049.279 4694105.942 0.000
526048.764 4694104.124 16.250
526047.630 4694104.702 11.488
526045.093 4694107.842 0.000
526046.616 4694106.867 0.000
526047.223 4694106.469 0.000
526047.531 4694106.275 0.000
526048.428 4694105.692 0.000
526045.082 4694107.296 0.000
526046.000 4694106.703 0.000
526046.854 4694106.140 0.000
526047.547 4694105.548 1.207
526048.138 4694105.325 0.000
526045.029 4694107.145 0.000
526046.405 4694106.224 0.000
526046.831 4694105.980 0.000
526048.086 4694105.179 0.000
526048.414 4694102.883 15.782
526045.934 4694106.332 0.000
526046.590 4694105.925 0.000
526046.921 4694105.722 0.000
526047.483 4694103.568 13.645
526043.599 4694107.119 0.000
526044.193 4694106.732 0.000
526046.390 4694105.334 0.000
526046.748 4694105.114 0.000
526043.875 4694106.233 0.000
526045.372 4694105.260 0.000
526046.010 4694104.857 0.000
526046.617 4694104.469 0.000
526043.702 4694106.065 0.000
526044.022 4694105.860 0.000
526044.376 4694105.643 0.000
526044.664 4694105.454 0.000
526045.492 4694104.902 0.000
526046.171 4694104.482 0.000
526043.551 4694105.965 0.000
526043.854 4694105.768 0.000
526044.739 4694105.196 0.000
526046.345 4694104.182 0.000
526046.664 4694103.979 0.000
526045.170 4694104.186 0.000
526046.180 4694103.554 0.000
526046.466 4694103.370 0.000
526047.377 4694102.781 0.000
526049.551 4694101.389 0.000
526049.864 4694101.193 0.000
526047.333 4694102.128 0.000
526049.166 4694100.943 0.000
526049.799 4694100.541 0.000
526048.641 4694100.802 0.528
526049.619 4694100.271 0.000
526044.327 4694103.642 0.000
526046.212 4694102.446 0.000
526046.817 4694102.055 0.000
526047.115 4694101.864 0.000
526048.045 4694101.265 0.000
526049.937 4694100.065 0.000
526047.853 4694101.214 0.000
526048.164 4694101.018 0.000
526048.721 4694100.557 0.638
526049.142 4694100.398 0.000
526049.439 4694100.211 0.000
526047.706 4694100.653 0.000
526048.031 4694100.452 0.000
526048.375 4694100.237 0.000
526047.325 4694100.303 0.000
526047.713 4694100.076 0.000
526045.014 4694101.412 0.000
526046.543 4694100.431 0.000
526046.809 4694100.252 0.000
526046.605 4694100.083 0.000
526001.353 4694114.059 0.000
526001.665 4694113.864 0.000
526001.711 4694114.295 0.000
526006.118 4694112.153 0.000
526006.426 4694111.957 0.000
526002.157 4694113.106 13.142
526001.870 4694114.178 9.159
526006.164 4694112.608 0.000
526006.722 4694112.250 0.000
526007.000 4694112.071 0.000
526003.313 4694112.332 16.131
526006.633 4694113.221 0.000
526007.228 4694112.845 0.000
526004.057 4694113.016 14.317
526004.269 4694112.851 14.580
526004.970 4694112.520 13.507
526007.386 4694113.495 0.000
526003.459 4694114.331 12.903
526005.711 4694113.213 10.367
526003.232 4694114.652 14.092
526007.744 4694112.329 9.831
526007.526 4694113.887 0.000
526004.630 4694114.210 11.745
526007.458 4694113.052 6.807
526006.645 4694114.855 0.000
526003.369 4694115.430 15.776
526009.225 4694111.964 13.367
526006.505 4694115.447 0.000
526007.115 4694115.066 0.000
526000.641 4694118.149 11.881
526006.338 4694116.025 0.000
526006.627 4694115.838 0.000
526002.702 4694117.100 9.802
526006.885 4694115.664 0.000
526002.616 4694116.789 12.555
526006.588 4694116.267 0.000
526006.872 4694116.081 0.000
526007.756 4694115.512 0.000
526004.379 4694115.584 16.142
526012.883 4694112.195 0.000
526009.230 4694112.887 12.755
526009.492 4694112.709 12.831
526006.362 4694116.870 0.000
526006.935 4694116.501 0.000
526007.471 4694116.151 0.000
526002.305 4694117.844 12.631
526005.520 4694115.714 12.973
526013.746 4694112.092 0.000
526009.759 4694112.904 13.519
526012.923 4694112.912 0.000
526011.347 4694112.696 12.151
526006.665 4694116.966 0.000
526007.526 4694116.407 0.000
526002.415 4694118.083 12.520
526004.775 4694118.549 0.000
526005.569 4694118.019 0.000
526005.865 4694117.835 0.000
526006.762 4694117.261 0.000
526001.944 4694118.584 13.707
526004.521 4694116.763 14.838
526013.014 4694113.209 0.000
526014.425 4694112.287 0.000
526013.225 4694113.392 0.000
526009.672 4694114.019 15.781
526011.345 4694113.174 13.978
526005.262 4694118.555 0.000
526005.537 4694118.373 0.000
526006.692 4694117.628 0.000
526005.016 4694119.101 0.000
526005.574 4694118.738 0.000
526005.848 4694118.559 0.000
526000.989 4694119.470 17.128
526005.145 4694117.607 10.706
526001.456 4694119.716 17.121
526008.686 4694115.529 13.351
526010.702 4694113.911 15.757
526012.062 4694113.342 13.342
526002.898 4694119.183 17.184
526011.567 4694113.897 14.591
526000.989 4694121.191 16.718
526013.921 4694115.005 0.000
526014.743 4694115.202 0.303
526014.933 4694115.054 0.383
526011.969 4694115.331 13.037
526012.957 4694114.817 12.083
526016.305 4694112.381 14.271
526000.181 4694122.619 15.828
526002.142 4694120.765 20.248
526012.346 4694116.809 0.000
526012.910 4694116.441 0.000
526013.782 4694115.881 0.000
526014.355 4694115.508 0.000
526013.391 4694116.272 0.000
526014.511 4694115.543 0.000
526014.773 4694115.363 0.000
526016.722 4694112.165 14.909
526011.658 4694117.383 0.000
526002.920 4694120.544 18.436
526013.708 4694115.936 0.000
526011.357 4694115.588 14.357
526013.124 4694114.710 12.331
526001.984 4694121.744 16.440
526002.126 4694121.284 19.235
526012.398 4694117.110 0.000
526011.290 4694116.320 11.660
526012.078 4694115.540 13.593
526016.138 4694113.096 12.237
526000.400 4694123.703 15.252
526003.463 4694121.719 15.378
526002.820 4694121.776 18.097
526012.606 4694117.779 0.000
526014.027 4694116.857 0.000
526014.922 4694116.281 0.000
526015.196 4694116.103 0.000
526011.816 4694116.702 12.067
526018.657 4694114.812 0.000
526019.495 4694114.265 0.000
526020.656 4694113.427 0.630
526016.538 4694114.809 10.461
526017.498 4694113.546 15.296
526017.725 4694113.307 15.903
526017.916 4694113.162 16.147
526018.361 4694112.912 15.851
526001.459 4694124.207 13.486
526012.043 4694119.099 0.000
526007.904 4694120.443 10.241
526012.912 4694118.541 0.000
526013.491 4694118.166 0.000
526014.896 4694117.250 0.000
526012.946 4694118.933 0.000
526017.505 4694115.966 0.000
526018.635 4694115.231 0.000
526019.524 4694114.658 0.000
526020.347 4694114.121 0.000
526017.142 4694114.915 9.888
526018.467 4694113.366 15.024
526018.444 4694113.572 13.935
526000.495 4694125.448 11.921
526005.443 4694123.424 2.978
526000.762 4694125.296 12.125
526005.903 4694123.116 3.327
526003.964 4694123.430 10.512
526017.393 4694114.522 11.908
526017.427 4694114.267 13.601
526016.769 4694116.584 0.000
526017.616 4694116.032 0.000
526019.052 4694115.099 0.000
526017.911 4694114.016 13.919
526018.096 4694113.866 14.098
526018.537 4694113.619 13.942
526005.800 4694123.314 3.105
526018.915 4694115.828 0.000
526019.772 4694115.275 0.000
526020.358 4694114.895 0.000
526021.515 4694114.149 0.000
526017.869 4694115.110 10.707
526018.065 4694114.959 10.912
526000.727 4694127.556 0.852
526000.746 4694125.985 12.731
526010.048 4694122.287 0.000
526011.429 4694121.383 0.000
526008.689 4694121.994 8.851
526009.263 4694121.708 8.333
526007.804 4694121.959 13.589
526015.513 4694117.482 9.410
526019.708 4694115.996 0.000
526020.559 4694115.442 0.000
526021.725 4694114.686 0.000
526022.579 4694114.127 0.000
526022.844 4694113.953 0.000
526023.160 4694113.751 0.000
526023.768 4694113.363 0.000
526024.072 4694113.168 0.000
526023.476 4694112.413 12.627
526001.728 4694126.616 8.272
526006.237 4694125.248 0.141
526009.739 4694123.004 0.000
526010.326 4694122.628 0.000
526010.606 4694122.442 0.000
526020.539 4694115.965 0.000
526021.111 4694115.594 0.000
526021.968 4694115.042 0.000
526016.182 4694117.936 9.813
526020.620 4694116.197 0.871
526021.397 4694115.833 0.000
526021.983 4694115.456 0.000
526022.575 4694115.074 0.000
526022.979 4694113.181 12.405
526001.532 4694127.270 11.508
526010.046 4694123.235 0.000
526011.457 4694122.316 0.000
526008.318 4694123.227 8.550
526015.171 4694118.665 12.165
526016.216 4694118.208 10.449
526021.117 4694116.385 0.000
526020.783 4694116.418 1.355
526021.421 4694116.192 0.000
526022.011 4694115.816 0.000
526022.287 4694115.634 0.000
526023.033 4694113.531 12.315
526023.147 4694113.406 12.709
526024.465 4694112.847 10.530
526006.218 4694126.054 0.217
526008.108 4694123.756 8.449
526013.762 4694121.531 0.000
526014.483 4694119.582 11.043
526015.346 4694118.772 13.150
526015.781 4694118.617 12.041
526021.708 4694116.339 0.000
526023.436 4694113.967 9.511
526000.967 4694128.258 12.189
526006.638 4694126.068 0.630
526010.366 4694123.744 0.000
526012.586 4694122.280 0.000
526022.210 4694116.409 0.000
526027.441 4694113.012 0.136
526024.011 4694113.677 11.935
526010.294 4694124.191 0.000
526010.852 4694123.822 0.000
526012.007 4694123.074 0.000
526014.265 4694121.601 0.000
526023.761 4694114.346 12.534
526024.414 4694114.028 11.793
526003.658 4694127.477 12.433
526009.169 4694125.421 0.921
526010.633 4694124.566 0.000
526012.927 4694123.075 0.000
526014.598 4694121.979 0.000
526014.924 4694121.774 0.000
526020.716 4694117.710 7.126
526024.042 4694114.770 12.957
526000.962 4694130.475 8.015
526001.168 4694130.320 8.163
526002.728 4694128.320 15.657
526004.059 4694127.864 12.554
526011.947 4694124.379 0.000
526012.657 4694123.790 0.981
526014.210 4694122.898 0.000
526014.501 4694122.711 0.000
526014.777 4694122.531 0.000
526018.459 4694120.120 0.000
526015.946 4694119.995 13.420
526024.710 4694114.492 13.207
526028.736 4694111.962 12.626
526003.021 4694128.352 15.389
526012.427 4694124.159 0.677
526014.103 4694123.154 0.000
526018.657 4694120.176 0.000
526018.945 4694119.991 0.000
526019.773 4694119.445 0.000
526020.392 4694117.959 8.181
526025.025 4694114.655 13.515
526001.096 4694130.564 8.067
526005.008 4694129.423 0.416
526012.589 4694124.545 0.000
526013.152 4694124.182 0.000
526013.460 4694123.986 0.000
526014.325 4694123.420 0.000
526017.132 4694121.585 0.000
526015.397 4694121.341 10.483
526016.522 4694120.358 12.278
526025.026 4694115.226 14.466
526025.395 4694115.092 13.657
526031.767 4694112.774 0.000
526032.053 4694112.589 0.000
526032.634 4694112.214 0.000
526013.024 4694124.975 0.000
526014.419 4694124.064 0.000
526015.452 4694122.503 6.675
526017.277 4694121.004 9.001
526017.458 4694120.771 9.742
526020.739 4694118.596 10.047
526024.687 4694116.358 13.100
526031.941 4694113.401 0.000
526032.248 4694113.200 0.000
526032.569 4694112.998 0.000
526033.131 4694112.626 0.000
526029.896 4694113.563 8.771
526030.277 4694112.513 14.825
526030.919 4694112.278 13.488
526031.162 4694112.110 13.605
526003.548 4694129.949 14.680
526014.640 4694124.664 0.000
526015.217 4694124.288 0.000
526016.364 4694123.541 0.000
526016.959 4694123.160 0.000
526024.032 4694118.523 0.000
526016.569 4694123.621 0.000
526017.126 4694123.252 0.000
526017.414 4694123.062 0.000
526017.720 4694121.935 6.772
526018.218 4694121.581 7.082
526021.231 4694119.163 10.565
526022.022 4694118.299 13.127
526025.232 4694116.319 12.298
526025.755 4694116.046 11.845
526025.676 4694115.908 13.269
526031.857 4694113.661 0.000
526032.390 4694113.301 0.000
526032.706 4694113.104 0.000
526033.002 4694112.914 0.000
526000.522 4694132.163 14.479
526002.476 4694131.236 11.820
526004.184 4694129.966 13.011
526014.522 4694124.938 0.000
526015.132 4694124.553 0.000
526016.012 4694123.982 0.000
526024.932 4694117.243 8.920
526032.010 4694113.850 0.000
526032.289 4694113.661 0.000
526032.554 4694113.477 0.000
526032.890 4694113.275 0.000
526034.380 4694112.314 0.000
526030.444 4694113.668 9.008
526031.142 4694112.760 12.416
526031.507 4694112.463 12.868
526002.564 4694131.455 11.969
526004.250 4694130.191 13.169
526014.079 4694125.507 0.000
526014.385 4694125.309 0.000
526014.670 4694125.129 0.000
526015.285 4694124.740 0.000
526016.160 4694124.176 0.000
526017.525 4694123.269 0.000
526031.636 4694114.507 2.273
526032.963 4694113.944 0.000
526033.891 4694113.351 0.000
526030.240 4694114.514 8.962
526031.345 4694113.455 11.585
526015.373 4694125.402 0.000
526016.245 4694124.834 0.000
526018.998 4694121.646 10.277
526024.173 4694119.636 0.000
526024.724 4694119.276 0.000
526025.014 4694119.089 0.000
526022.516 4694119.304 10.539
526027.314 4694117.583 0.000
526022.837 4694119.102 10.602
526019.479 4694121.974 11.057
526025.240 4694119.672 0.000
526025.573 4694119.463 0.000
526026.707 4694118.722 0.000
526027.871 4694117.963 0.000
526028.128 4694117.790 0.000
526028.740 4694117.402 0.000
526029.379 4694116.667 2.414
526029.680 4694116.214 4.414
526032.880 4694114.724 0.000
526034.993 4694113.367 0.000
526036.199 4694112.590 0.000
526000.888 4694133.445 16.070
526015.606 4694125.981 0.000
526015.891 4694125.796 0.000
526016.139 4694125.629 0.000
526016.434 4694125.440 0.000
526017.883 4694124.497 0.000
526020.386 4694121.544 11.327
526025.519 4694119.715 0.000
526022.460 4694120.719 7.361
526026.394 4694119.142 0.000
526026.679 4694118.949 0.000
526026.976 4694118.765 0.000
526027.776 4694118.222 0.000
526029.021 4694117.434 0.000
526029.209 4694117.117 1.346
526029.458 4694116.770 2.838
526033.140 4694114.767 0.000
526036.155 4694112.831 0.000
526010.666 4694128.345 8.059
526015.531 4694126.237 0.000
526016.976 4694125.297 0.000
526017.823 4694124.742 0.000
526021.229 4694121.419 9.775
526025.628 4694119.848 0.000
526022.917 4694120.574 7.831
526026.444 4694119.311 0.000
526026.732 4694119.118 0.000
526027.620 4694118.542 0.000
526028.774 4694117.792 0.000
526029.633 4694116.893 2.631
526034.769 4694113.683 1.761
526036.554 4694112.776 0.000
526036.703 4694112.557 0.894
526000.065 4694134.237 17.537
526000.829 4694133.888 16.353
526015.641 4694126.379 0.000
526016.736 4694125.654 0.000
526017.057 4694125.451 0.000
526025.959 4694120.200 0.000
526026.246 4694120.008 0.000
526026.240 4694119.926 0.630
526026.781 4694119.645 0.000
526028.220 4694118.707 0.000
526029.092 4694118.140 0.000
526029.324 4694117.976 0.000
526030.221 4694116.980 3.236
526034.641 4694114.363 1.244
526036.257 4694113.522 0.000
526037.043 4694112.818 1.445
526038.077 4694112.356 0.000
526036.956 4694112.270 6.025
526000.006 4694134.884 17.105
526002.650 4694133.991 10.835
526017.938 4694125.438 0.000
526037.916 4694113.231 0.000
526038.866 4694112.635 0.000
526039.141 4694112.451 0.000
526010.597 4694129.329 12.959
526010.812 4694129.170 13.027
526012.562 4694128.397 10.248
526018.157 4694126.099 0.000
526018.700 4694125.742 0.000
526019.262 4694125.371 0.000
526016.497 4694126.163 7.659
526020.057 4694123.036 13.729
526020.544 4694122.783 13.246
526026.713 4694120.507 0.000
526028.726 4694119.186 0.000
526029.882 4694118.429 0.000
526004.647 4694133.274 12.489
526028.466 4694119.802 0.000
526030.165 4694118.175 3.917
526034.679 4694115.782 0.000
526039.187 4694112.873 0.000
526039.477 4694112.684 0.000
526040.133 4694112.025 1.764
526010.961 4694129.469 13.465
526019.017 4694125.982 0.000
526019.329 4694125.781 0.000
526020.040 4694124.419 6.765
526020.270 4694123.409 13.307
526020.596 4694123.293 12.565
526027.036 4694120.739 0.000
526027.929 4694120.165 0.000
526039.370 4694113.155 0.000
526040.543 4694112.387 0.000
526005.215 4694133.426 15.108
526007.647 4694131.993 13.888
526020.153 4694124.976 5.163
526023.536 4694123.444 0.000
526024.119 4694123.063 0.000
526020.405 4694123.868 12.185
526021.988 4694123.306 8.679
526022.685 4694122.886 8.267
526022.787 4694122.769 8.661
526027.868 4694120.615 0.000
526028.463 4694120.231 0.000
526029.278 4694119.691 0.000
526027.408 4694121.269 0.000
526028.051 4694120.874 0.000
526029.519 4694119.915 0.000
526041.043 4694112.440 0.000
526001.880 4694136.094 14.177
526010.650 4694130.247 15.122
526021.157 4694125.379 0.000
526022.580 4694124.445 0.000
526023.485 4694123.865 0.000
526024.973 4694123.380 0.000
526026.394 4694122.447 0.000
526026.746 4694122.148 0.440
526026.993 4694121.979 0.618
526032.669 4694116.408 14.528
526033.395 4694116.141 13.000
526041.169 4694112.860 0.000
526041.820 4694112.454 0.000
526009.199 4694132.157 11.685
526011.395 4694130.198 15.539
526016.512 4694127.306 12.099
526018.297 4694126.680 8.073
526032.249 4694116.942 13.959
526032.848 4694116.472 14.473
526040.413 4694113.514 0.000
526041.016 4694113.130 0.000
526011.416 4694130.335 15.762
526015.665 4694128.336 9.868
526021.960 4694125.094 3.291
526026.494 4694122.546 0.000
526028.308 4694121.380 0.000
526028.420 4694120.829 3.583
526028.998 4694120.455 3.519
526004.443 4694135.313 12.734
526036.800 4694116.444 0.000
526041.053 4694113.708 0.000
526041.361 4694113.511 0.000
526041.913 4694113.142 0.000
526015.606 4694128.952 9.979
526017.260 4694127.434 13.329
526027.512 4694122.438 0.183
526001.462 4694137.268 17.198
526001.769 4694137.165 16.454
526035.821 4694117.916 0.000
526036.137 4694117.720 0.000
526036.978 4694117.161 0.000
526037.247 4694116.981 0.000
526031.799 4694118.795 12.965
526032.358 4694118.265 14.174
526033.875 4694117.215 14.633
526041.204 4694114.435 0.000
526041.497 4694114.247 0.000
526042.111 4694113.847 0.000
526042.378 4694113.667 0.000
526042.666 4694113.472 0.000
526042.607 4694112.017 11.219
526011.728 4694132.019 12.450
526011.480 4694131.926 14.286
526011.718 4694131.670 15.048
526028.802 4694122.493 0.000
526029.088 4694122.308 0.000
526029.373 4694122.120 0.000
526006.095 4694135.331 15.175
526026.264 4694124.083 6.061
526029.020 4694123.102 0.000
526029.312 4694122.914 0.000
526029.607 4694122.719 0.000
526029.961 4694122.164 2.420
526032.514 4694118.974 13.768
526033.500 4694118.281 14.199
526041.399 4694115.049 0.000
526041.754 4694114.838 0.000
526042.908 4694114.081 0.000
526000.597 4694139.351 17.647
526000.870 4694139.172 17.727
526001.404 4694138.641 19.096
526007.694 4694134.769 17.200
526008.116 4694134.625 16.233
526014.566 4694131.020 11.560
526025.463 4694125.313 0.904
526027.702 4694123.748 1.497
526041.617 4694115.169 0.000
526042.261 4694114.763 0.000
526042.818 4694114.391 0.000
526043.104 4694114.196 0.000
526018.485 4694128.475 13.150
526026.354 4694125.102 0.000
526025.744 4694125.142 2.629
526028.960 4694123.399 0.000
526029.503 4694123.039 0.000
526029.796 4694122.847 0.000
526037.701 4694117.699 0.000
526032.810 4694119.228 12.381
526033.259 4694118.738 13.859
526040.142 4694116.129 0.000
526000.268 4694140.172 15.037
526001.251 4694139.053 18.696
526002.249 4694138.550 17.556
526009.418 4694134.375 13.594
526037.794 4694117.779 0.000
526032.810 4694119.359 12.475
526041.673 4694115.268 0.000
526041.997 4694115.062 0.000
526043.113 4694114.321 0.000
526018.696 4694128.446 13.472
526022.862 4694126.379 8.594
526029.319 4694123.309 0.000
526001.959 4694138.860 17.777
526002.760 4694138.590 15.891
526014.251 4694131.534 12.197
526037.893 4694118.430 0.000
526032.868 4694120.174 11.321
526040.233 4694116.896 0.000
526041.751 4694115.919 0.000
526042.379 4694115.518 0.000
526043.211 4694114.795 1.144
526002.487 4694139.620 14.837
526007.334 4694136.322 15.668
526008.277 4694135.911 14.110
526040.295 4694117.894 0.000
526040.659 4694117.670 0.000
526041.504 4694117.116 0.000
526041.833 4694116.907 0.000
526042.135 4694116.708 0.000
526042.749 4694116.316 0.000
526043.329 4694115.937 0.000
526018.573 4694130.506 11.821
526022.597 4694129.022 3.162
526025.036 4694126.353 11.177
526029.920 4694123.593 7.932
526031.920 4694121.359 14.813
526036.848 4694119.404 5.549
526000.711 4694142.015 13.319
526006.520 4694139.642 2.733
526002.721 4694140.725 13.164
526003.226 4694140.375 13.301
526008.345 4694138.586 1.807
526009.548 4694137.729 2.176
526015.475 4694132.369 13.057
526030.617 4694122.916 11.911
526041.526 4694117.433 0.000
526041.807 4694117.244 0.000
526042.135 4694117.041 0.000
526042.714 4694116.662 0.000
526043.329 4694116.262 0.000
526021.066 4694130.498 2.147
526041.793 4694117.318 0.000
526002.890 4694140.730 14.707
526005.379 4694139.720 10.107
526023.421 4694127.756 11.444
526001.458 4694141.907 13.529
526006.398 4694140.082 2.944
526009.677 4694138.084 1.877
526012.735 4694134.577 12.850
526023.745 4694127.741 12.355
526023.963 4694127.502 13.184
526030.193 4694123.919 9.498
526030.648 4694123.253 12.230
526035.976 4694119.974 10.854
526036.335 4694119.842 10.107
526041.985 4694117.518 0.000
526042.271 4694117.331 0.000
526043.159 4694116.747 0.000
526014.223 4694133.472 16.335
526039.690 4694119.725 0.000
526040.887 4694118.941 0.000
526041.790 4694118.365 0.000
526042.124 4694118.153 0.000
526042.424 4694117.958 0.000
526043.011 4694117.570 0.000
526020.479 4694130.605 12.538
526025.652 4694127.166 12.865
526030.955 4694123.821 11.842
526031.829 4694123.000 13.652
526002.733 4694141.652 17.153
526017.105 4694133.436 13.600
526017.942 4694132.798 14.399
526018.065 4694132.502 15.899
526019.606 4694131.534 15.516
526025.142 4694128.044 14.381
526008.662 4694139.739 8.202
526031.997 4694124.194 12.275
526033.937 4694123.237 9.886
526005.614 4694141.151 15.010
526012.625 4694137.274 9.722
526020.285 4694131.499 14.964
526027.526 4694128.609 1.313
526026.129 4694128.239 10.787
526019.825 4694131.963 17.097
526025.297 4694129.016 12.371
526025.555 4694128.836 12.526
526029.526 4694126.825 8.092
526031.242 4694124.770 14.948
526035.199 4694122.256 14.407
526003.771 4694142.319 18.581
526004.136 4694142.111 18.415
526005.208 4694141.752 15.856
526006.274 4694141.048 15.823
526012.876 4694137.579 9.449
526014.611 4694135.068 19.525
526018.618 4694133.456 15.575
526018.483 4694133.337 17.103
526023.230 4694130.720 13.301
526004.251 4694142.544 18.209
526007.399 4694141.041 14.044
526007.795 4694140.823 13.704
526009.138 4694139.837 14.576
526013.497 4694138.010 6.889
526013.995 4694136.521 15.411
526015.242 4694135.314 18.189
526017.480 4694134.287 14.938
526034.680 4694123.844 11.834
526035.013 4694123.636 11.797
526040.851 4694121.427 0.000
526041.107 4694121.254 0.000
526041.405 4694121.060 0.000
526036.700 4694121.941 16.117
526015.144 4694136.044 16.474
526016.002 4694135.583 15.807
526017.651 4694134.572 15.278
526019.246 4694133.078 18.476
526019.906 4694132.673 18.220
526031.730 4694127.198 1.454
526030.271 4694127.039 9.544
526003.484 4694143.856 15.461
526006.675 4694141.733 15.621
526007.788 4694141.177 14.373
526008.984 4694140.507 13.496
526011.178 4694138.796 15.493
526039.612 4694122.813 0.000
526039.924 4694122.616 0.000
526040.788 4694122.048 0.000
526041.091 4694121.849 0.000
526042.498 4694120.915 0.000
526036.523 4694122.518 16.971
526037.353 4694122.125 15.927
526014.448 4694137.503 13.614
526018.736 4694134.196 17.087
526031.215 4694127.383 6.882
526007.906 4694141.478 15.942
526017.884 4694136.759 2.466
526031.807 4694126.558 15.850
526041.793 4694122.185 0.000
526035.989 4694123.953 14.897
526037.017 4694123.080 16.367
526016.996 4694136.653 13.386
526018.941 4694135.030 15.779
526020.555 4694133.776 17.129
526024.630 4694131.066 17.362
526033.594 4694127.190 2.729
526001.611 4694146.791 13.139
526031.006 4694128.309 11.795
526032.703 4694126.855 14.334
526035.459 4694125.771 8.986
526036.204 4694124.829 12.243
526010.586 4694140.691 19.320
526011.639 4694140.244 17.582
526015.558 4694138.203 13.720
526024.931 4694131.497 17.603
526033.467 4694128.205 0.813
526007.215 4694142.967 18.976
526009.648 4694141.973 14.625
526035.845 4694125.760 9.070
526038.684 4694123.713 10.417
526015.320 4694138.572 13.942
526016.973 4694137.745 12.151
526018.361 4694136.831 12.151
526019.753 4694135.478 15.303
526020.544 4694135.028 14.786
526020.755 4694134.789 15.563
526030.160 4694128.731 14.520
526034.806 4694126.895 5.819
526000.073 4694148.198 16.648
526000.660 4694147.912 16.156
526042.783 4694122.512 2.508
526024.623 4694132.186 19.105
526028.705 4694129.803 16.743
526005.820 4694144.816 17.124
526007.147 4694143.566 19.986
