x,y,z,label
526031.944,4694135.879,10.932,21.0
526031.193,4694136.59,11.274,21.0
526031.469,4694136.784,11.358,21.0
526031.657,4694135.987,11.867,21.0
526031.731,4694137.765,12.070999999999998,21.0
526031.139,4694136.872,12.161,21.0
526030.986,4694136.976,12.216000000000001,21.0
526031.214,4694138.008,12.375999999999998,21.0
526030.722,4694137.666,12.389,21.0
526031.22,4694137.031,12.399000000000001,21.0
526031.065,4694137.346,12.409000000000002,21.0
526030.883,4694137.227,12.414,21.0
526031.355,4694137.758,12.44,21.0
526030.968,4694137.306,12.530000000000001,21.0
526030.862,4694137.766,12.626000000000001,21.0
526031.208,4694137.933,12.635000000000002,21.0
526030.939,4694137.739,12.641,21.0
526031.116,4694137.605,12.678,21.0
526032.014,4694138.045,13.723,21.0
526032.191,4694138.378,13.748,21.0
526032.278,4694138.78,13.753,21.0
526031.777,4694138.101,13.801,21.0
526032.281,4694138.572,13.863,21.0
526034.02,4694139.084,13.881,21.0
526031.743,4694138.227,13.882000000000001,21.0
526032.257,4694138.343,14.023,21.0
526032.078,4694138.902,14.049,21.0
526034.109,4694139.337,14.063,21.0
526031.64,4694138.49,14.128999999999998,21.0
526032.0,4694138.66,14.219,21.0
526031.736,4694138.744,14.275000000000002,21.0
526031.877,4694138.68,14.297,21.0
526031.867,4694138.466,14.310000000000002,21.0
526031.873,4694138.77,14.323,21.0
526033.839,4694139.049,15.087,21.0
526031.726,4694136.159,15.17,21.0
526033.418,4694138.895,15.278000000000002,21.0
526031.404,4694136.161,15.45,21.0
526031.473,4694137.555,15.452000000000002,21.0
526031.968,4694135.43,15.530000000000001,21.0
526033.659,4694139.093,15.530000000000001,21.0
526031.429,4694136.596,15.546,21.0
526033.745,4694138.987,15.552,21.0
526031.495,4694136.462,15.637,21.0
526031.4,4694137.304,15.683,21.0
526031.648,4694136.545,15.742999999999999,21.0
526032.135,4694135.186,15.782,21.0
526031.489,4694137.249,15.824,21.0
526032.14,4694135.905,15.849,21.0
526032.25,4694135.188,15.92,21.0
526031.671,4694136.866,15.927,21.0
526032.522,4694136.079,15.940000000000001,21.0
526031.74,4694136.369,15.984000000000002,21.0
526032.434,4694138.052,16.038,21.0
526031.649,4694137.069,16.07,21.0
526032.426,4694136.111,16.072,21.0
526031.905,4694136.072,16.122,21.0
526032.161,4694136.218,16.181,21.0
526032.189,4694135.497,16.223,21.0
526032.185,4694135.604,16.268,21.0
526032.289,4694135.487,16.276,21.0
526031.984,4694136.842,16.41,21.0
526032.17,4694136.454,16.435,21.0
526032.263,4694135.762,16.474,21.0
526032.718,4694135.982,16.482,21.0
526031.844,4694136.492,16.493,21.0
526032.46,4694135.541,16.589,21.0
526031.88,4694136.54,16.613,21.0
526031.82,4694137.555,17.185,21.0
526033.131,4694135.498,17.194,21.0
526032.674,4694135.733,17.277,21.0
526031.733,4694137.502,17.285,21.0
526032.992,4694135.533,17.31,21.0
526031.725,4694137.458,17.313,21.0
526032.527,4694137.729,17.32,21.0
526031.901,4694137.76,17.353,21.0
526032.724,4694137.404,17.358,21.0
526033.476,4694135.499,17.36,21.0
526031.99,4694137.125,17.366,21.0
526032.78,4694137.85,17.368,21.0
526034.554,4694138.241,17.393,21.0
526032.213,4694137.132,17.399,21.0
526034.545,4694138.493,17.426,21.0
526031.805,4694137.304,17.434,21.0
526032.309,4694137.206,17.436,21.0
526032.122,4694137.813,17.456,21.0
526032.095,4694137.712,17.48,21.0
526032.279,4694137.632,17.517,21.0
526033.866,4694138.872,17.52,21.0
526034.308,4694138.821,17.528,21.0
526032.205,4694137.449,17.535,21.0
526032.305,4694137.788,17.538,21.0
526032.45,4694137.283,17.598,21.0
526034.075,4694138.906,17.612,21.0
526032.742,4694137.991,17.691,21.0
526032.501,4694136.376,17.7,21.0
526033.233,4694135.621,17.706,21.0
526032.685,4694138.139,17.717,21.0
526032.783,4694138.146,17.969,21.0
526033.717,4694138.503,17.972,21.0
526032.447,4694136.477,17.98,21.0
526032.725,4694138.459,18.122,21.0
526032.178,4694136.649,18.124,21.0
526033.465,4694138.373,18.142,21.0
526033.07,4694138.52,18.179,21.0
526033.499,4694138.506,18.183,21.0
526032.348,4694136.62,18.212,21.0
526032.904,4694138.639,18.229,21.0
526033.644,4694135.695,18.291,21.0
526032.188,4694136.844,18.296,21.0
526033.115,4694138.48,18.325,21.0
526034.309,4694138.528,18.342,21.0
526032.929,4694138.371,18.37,21.0
526032.993,4694135.879,18.382,21.0
526034.506,4694137.43,18.395,21.0
526033.49,4694135.712,18.401,21.0
526032.659,4694136.684,18.415,21.0
526032.49,4694136.895,18.432,21.0
526032.896,4694136.109,18.457,21.0
526032.803,4694137.575,18.574,21.0
526033.785,4694138.615,18.671,21.0
526033.176,4694135.961,18.781,21.0
526034.469,4694138.379,18.799,21.0
526033.381,4694135.964,18.84,21.0
526033.219,4694138.102,18.872,21.0
526034.016,4694138.537,18.875,21.0
526032.641,4694136.867,18.885,21.0
526032.899,4694136.418,18.886,21.0
526033.986,4694138.408,18.897,21.0
526034.235,4694138.423,18.906,21.0
526033.198,4694137.939,18.92,21.0
526032.855,4694137.308,19.014,21.0
526032.563,4694137.099,19.02,21.0
526033.7,4694135.999,19.042,21.0
526034.363,4694138.186,19.043,21.0
526033.829,4694138.144,19.088,21.0
526033.237,4694136.457,19.095,21.0
526033.406,4694136.137,19.121,21.0
526034.542,4694137.815,19.124,21.0
526033.671,4694136.116,19.142,21.0
526034.235,4694138.166,19.172,21.0
526033.166,4694136.176,19.178,21.0
526034.368,4694137.484,19.228,21.0
526033.275,4694136.466,19.27,21.0
526033.541,4694138.27,19.311,21.0
526033.157,4694137.584,19.425,21.0
526034.504,4694137.74,19.452,21.0
526034.258,4694137.026,19.458,21.0
526034.358,4694137.684,19.467,21.0
526034.262,4694137.918,19.489,21.0
526033.511,4694138.192,19.492,21.0
526034.289,4694136.853,19.502,21.0
526033.421,4694138.22,19.538,21.0
526033.432,4694137.854,19.612,21.0
526032.909,4694136.725,19.623,21.0
526032.798,4694137.02,19.627,21.0
526034.012,4694136.79,19.635,21.0
526034.079,4694136.61,19.642,21.0
526034.023,4694137.273,19.661,21.0
526033.843,4694136.488,19.694,21.0
526032.824,4694136.967,19.729,21.0
526033.965,4694137.951,19.781,21.0
526034.029,4694137.902,19.785,21.0
526033.643,4694137.778,19.863,21.0
526033.716,4694136.491,19.886,21.0
526034.126,4694137.748,19.913,21.0
526033.734,4694137.737,20.015,21.0
526033.896,4694137.667,20.077,21.0
526033.776,4694136.709,20.094,21.0
526034.112,4694137.01,20.113,21.0
526033.315,4694137.534,20.157,21.0
526033.536,4694136.731,20.183,21.0
526033.301,4694136.736,20.227,21.0
526033.87,4694136.765,20.255,21.0
526033.235,4694136.714,20.309,21.0
526033.248,4694137.16,20.475,21.0
526033.222,4694136.85,20.486,21.0
526033.769,4694137.215,20.535,21.0
526033.418,4694136.775,20.538,21.0
526033.202,4694137.341,20.55,21.0
526033.715,4694136.919,20.598,21.0
526033.81,4694137.458,20.652,21.0
526033.329,4694137.363,20.662,21.0
526033.617,4694137.345,20.757,21.0
526033.48,4694137.167,20.816,21.0
526033.667,4694137.211,20.914,21.0
526008.235,4694118.931,2.506,22.0
526008.326,4694118.848,2.582,22.0
526005.697,4694124.06,2.604,22.0
526005.79,4694123.812,2.66,22.0
526008.538,4694118.714,2.663,22.0
526006.922,4694119.142,2.696,22.0
526007.035,4694119.131,2.711,22.0
526008.657,4694118.989,2.781,22.0
526008.357,4694118.647,2.785,22.0
526006.041,4694123.541,2.788,22.0
526006.022,4694123.436,2.801,22.0
526005.55,4694123.808,2.814,22.0
526005.495,4694123.608,2.843,22.0
526005.66,4694123.713,2.87,22.0
526005.824,4694123.699,2.944,22.0
526005.443,4694123.424,2.978,22.0
526005.8,4694123.314,3.1049999999999995,22.0
526005.644,4694123.168,3.1130000000000004,22.0
526005.459,4694123.223,3.13,22.0
526005.588,4694123.336,3.136,22.0
526006.843,4694119.356,3.215,22.0
526005.73,4694122.9,3.2269999999999994,22.0
526007.072,4694119.486,3.301,22.0
526005.666,4694122.69,3.319,22.0
526005.903,4694123.116,3.327,22.0
526008.817,4694120.611,3.8760000000000003,22.0
526008.525,4694120.66,3.8980000000000006,22.0
526007.094,4694119.994,5.706,22.0
526007.013,4694119.627,5.8,22.0
526006.833,4694119.715,5.815,22.0
526006.812,4694119.929,5.828,22.0
526006.413,4694119.687,6.045,22.0
526006.546,4694119.434,6.09,22.0
526009.28,4694121.31,6.109,22.0
526009.534,4694121.687,6.112,22.0
526006.489,4694119.392,6.115,22.0
526006.51,4694119.937,6.135,22.0
526006.728,4694119.633,6.135999999999999,22.0
526006.414,4694119.925,6.185,22.0
526009.087,4694120.953,6.224,22.0
526009.149,4694122.332,6.234,22.0
526009.4,4694122.274,6.261000000000001,22.0
526009.062,4694121.189,6.282,22.0
526009.583,4694121.819,6.335000000000001,22.0
526008.805,4694120.864,6.3759999999999994,22.0
526008.854,4694121.113,6.382,22.0
526009.528,4694122.234,6.4,22.0
526009.058,4694121.398,6.414,22.0
526009.457,4694122.197,6.427999999999999,22.0
526009.906,4694122.173,6.444000000000001,22.0
526009.632,4694122.407,6.466000000000001,22.0
526009.834,4694121.692,6.527999999999999,22.0
526010.045,4694121.807,6.593,22.0
526009.993,4694121.8,6.614000000000001,22.0
526010.13,4694121.709,6.6530000000000005,22.0
526006.246,4694123.001,7.395,22.0
526004.292,4694119.057,7.526999999999999,22.0
526005.975,4694122.787,7.578999999999999,22.0
526005.964,4694122.647,7.648,22.0
526004.136,4694119.033,7.664,22.0
526006.378,4694120.653,7.681,22.0
526005.929,4694122.417,7.831999999999999,22.0
526008.945,4694121.528,7.8629999999999995,22.0
526004.418,4694119.63,7.870000000000001,22.0
526006.113,4694122.76,7.8759999999999994,22.0
526008.995,4694121.458,7.916,22.0
526006.103,4694122.267,7.945,22.0
526005.925,4694122.109,8.029,22.0
526006.047,4694122.06,8.04,22.0
526007.822,4694119.685,8.069,22.0
526004.529,4694121.617,8.167,22.0
526007.763,4694119.921,8.269,22.0
526008.537,4694121.44,8.294,22.0
526009.243,4694121.715,8.303,22.0
526007.465,4694119.312,8.304,22.0
526007.37,4694119.557,8.31,22.0
526009.249,4694121.775,8.327,22.0
526009.263,4694121.708,8.333,22.0
526007.593,4694119.535,8.349,22.0
526007.5,4694119.342,8.361,22.0
526008.519,4694122.785,8.364,22.0
526008.67,4694121.704,8.373,22.0
526009.325,4694121.757,8.406,22.0
526006.216,4694120.259,8.675,22.0
526006.577,4694120.174,8.68,22.0
526006.552,4694120.533,8.682,22.0
526006.482,4694120.465,8.712,22.0
526006.151,4694120.191,8.721,22.0
526006.34,4694120.071,8.733,22.0
526006.68,4694120.478,8.751,22.0
526006.219,4694119.98,8.756,22.0
526008.946,4694121.939,8.803,22.0
526008.715,4694122.178,8.839,22.0
526008.689,4694121.994,8.851,22.0
526003.758,4694119.488,8.874,22.0
526006.87,4694120.125,8.888,22.0
526008.852,4694122.377,8.905,22.0
526009.041,4694122.013,9.023,22.0
526005.744,4694121.441,9.141,22.0
526008.873,4694122.117,9.168,22.0
526005.767,4694121.577,9.193,22.0
526005.554,4694121.571,9.235,22.0
526008.55,4694121.035,9.251,22.0
526008.287,4694120.47,9.284,22.0
526008.53,4694120.837,9.348,22.0
526008.359,4694120.803,9.483,22.0
526007.205,4694120.113,9.686,22.0
526008.601,4694122.57,9.779,22.0
526006.235,4694122.567,10.032,22.0
526007.384,4694119.969,10.046,22.0
526007.58,4694119.988,10.064,22.0
526008.092,4694120.147,10.094,22.0
526006.242,4694121.976,10.143,22.0
526007.468,4694120.081,10.152,22.0
526006.982,4694120.476,10.158,22.0
526008.192,4694120.436,10.165,22.0
526007.942,4694120.192,10.213,22.0
526007.904,4694120.443,10.241,22.0
526007.919,4694120.678,10.278,22.0
526007.619,4694120.306,10.305,22.0
526008.291,4694120.626,10.341,22.0
526008.09,4694120.92,10.356,22.0
526008.117,4694120.729,10.371,22.0
526007.617,4694120.189,10.384,22.0
526007.935,4694122.577,10.468,22.0
526005.031,4694120.794,10.543,22.0
526006.412,4694123.297,10.55,22.0
526004.012,4694122.589,10.551,22.0
526006.437,4694122.975,10.58,22.0
526004.726,4694119.889,10.653,22.0
526006.791,4694123.093,10.66,22.0
526003.958,4694122.527,10.675,22.0
526006.76,4694123.288,10.693,22.0
526008.523,4694122.32,10.706,22.0
526004.907,4694120.55,10.709,22.0
526006.415,4694123.033,10.711,22.0
526004.725,4694120.577,10.737,22.0
526005.303,4694120.576,10.757,22.0
526006.557,4694123.421,10.803,22.0
526004.934,4694120.329,10.812,22.0
526003.913,4694122.277,10.829,22.0
526004.958,4694119.955,10.85,22.0
526004.577,4694121.899,10.851,22.0
526004.343,4694121.743,10.868,22.0
526004.887,4694120.194,10.88,22.0
526008.341,4694122.441,10.882,22.0
526006.644,4694123.139,10.89,22.0
526005.08,4694119.996,10.898,22.0
526005.114,4694120.512,10.923,22.0
526008.235,4694122.586,10.941,22.0
526005.204,4694120.406,10.956,22.0
526005.206,4694120.07,10.964,22.0
526008.29,4694122.504,10.97,22.0
526004.098,4694122.126,11.005,22.0
526004.109,4694121.962,11.007,22.0
526003.994,4694122.071,11.016,22.0
526004.441,4694121.956,11.059,22.0
526004.313,4694122.02,11.1,22.0
526004.226,4694122.413,11.159,22.0
526005.509,4694120.28,11.167,22.0
526005.477,4694120.267,11.181,22.0
526004.376,4694122.536,11.181,22.0
526005.532,4694120.121,11.209,22.0
526004.295,4694122.359,11.239,22.0
526005.407,4694120.232,11.249,22.0
526004.629,4694122.151,11.291,22.0
526004.539,4694122.536,11.313,22.0
526004.737,4694122.498,11.421,22.0
526008.111,4694122.293,11.577,22.0
526004.137,4694120.971,11.734,22.0
526004.47,4694121.11,11.755,22.0
526004.385,4694120.887,11.762,22.0
526008.387,4694122.13,11.767,22.0
526008.311,4694121.096,11.804,22.0
526004.678,4694120.997,11.808,22.0
526008.17,4694121.918,11.831,22.0
526004.688,4694121.274,11.859,22.0
526006.166,4694121.515,11.895,22.0
526004.577,4694121.052,11.904,22.0
526008.304,4694121.334,11.906,22.0
526008.429,4694121.884,11.916,22.0
526008.272,4694121.615,11.935,22.0
526004.773,4694121.113,11.944,22.0
526006.441,4694121.836,11.995,22.0
526006.0,4694120.721,12.038,22.0
526005.843,4694121.206,12.135,22.0
526007.009,4694120.427,12.16,22.0
526005.925,4694120.974,12.168,22.0
526007.568,4694122.722,12.169,22.0
526004.431,4694120.514,12.173000000000002,22.0
526005.999,4694121.3,12.192999999999998,22.0
526006.207,4694121.275,12.196,22.0
526006.098,4694120.907,12.258,22.0
526007.085,4694122.804,12.280999999999999,22.0
526007.56,4694121.02,12.284,22.0
526006.7,4694122.764,12.323999999999998,22.0
526008.065,4694121.509,12.329,22.0
526007.266,4694122.945,12.332,22.0
526007.516,4694122.822,12.356000000000002,22.0
526007.14,4694122.663,12.366,22.0
526007.49,4694122.706,12.375,22.0
526003.821,4694119.174,12.382000000000001,22.0
526007.672,4694120.638,12.428,22.0
526004.25,4694120.3,12.432,22.0
526004.077,4694120.678,12.436999999999998,22.0
526007.658,4694120.942,12.447,22.0
526007.248,4694120.586,12.452000000000002,22.0
526003.647,4694119.316,12.478000000000002,22.0
526007.84,4694120.872,12.528,22.0
526004.519,4694120.309,12.556000000000001,22.0
526004.338,4694120.056,12.578,22.0
526008.091,4694121.285,12.628,22.0
526007.38,4694120.552,12.634,22.0
526007.359,4694120.411,12.658,22.0
526004.535,4694120.094,12.706,22.0
526006.919,4694120.732,12.715,22.0
526006.457,4694122.086,12.736,22.0
526007.941,4694121.23,12.846,22.0
526007.812,4694122.41,12.889,22.0
526008.01,4694121.203,12.907,22.0
526008.015,4694122.021,12.974,22.0
526006.239,4694121.115,13.059,22.0
526006.456,4694122.351,13.082999999999998,22.0
526007.06,4694122.32,13.189,22.0
526006.764,4694122.775,13.197,22.0
526007.355,4694120.795,13.204999999999998,22.0
526006.778,4694122.564,13.232,22.0
526006.481,4694122.658,13.255000000000003,22.0
526007.908,4694122.09,13.321,22.0
526006.686,4694122.43,13.321,22.0
526006.671,4694122.525,13.348,22.0
526007.841,4694121.739,13.350000000000001,22.0
526006.372,4694121.047,13.378999999999998,22.0
526006.92,4694122.495,13.385000000000002,22.0
526006.467,4694120.99,13.416,22.0
526004.032,4694119.407,13.469,22.0
526007.746,4694122.108,13.509999999999998,22.0
526007.654,4694122.304,13.568000000000001,22.0
526007.804,4694121.959,13.588999999999999,22.0
526007.003,4694121.127,13.622,22.0
526007.081,4694120.878,13.709,22.0
526006.722,4694122.087,13.729,22.0
526007.754,4694121.428,13.748,22.0
526006.335,4694121.626,13.766,22.0
526007.644,4694121.615,13.793,22.0
526004.127,4694119.678,13.875999999999998,22.0
526006.673,4694120.969,13.899000000000001,22.0
526004.326,4694119.932,13.936999999999998,22.0
526006.751,4694120.958,13.962,22.0
526003.948,4694119.738,13.962999999999997,22.0
526006.692,4694121.094,13.963999999999999,22.0
526007.593,4694121.348,14.01,22.0
526007.408,4694121.202,14.075,22.0
526004.206,4694119.872,14.076999999999998,22.0
526006.476,4694121.483,14.132,22.0
526003.817,4694120.666,14.213000000000001,22.0
526007.553,4694121.85,14.311,22.0
526003.907,4694120.882,14.318000000000001,22.0
526006.701,4694121.478,14.425,22.0
526006.569,4694121.689,14.503,22.0
526007.231,4694122.008,14.598000000000003,22.0
526006.746,4694121.982,14.616,22.0
526006.974,4694121.219,14.628,22.0
526007.332,4694122.251,14.656,22.0
526007.353,4694121.358,14.673,22.0
526007.312,4694121.676,14.716,22.0
526007.377,4694122.011,14.742,22.0
526007.33,4694121.952,14.747,22.0
526007.249,4694121.827,14.823,22.0
526004.001,4694120.408,14.841000000000001,22.0
526003.887,4694120.459,14.913,22.0
526004.052,4694120.098,15.009999999999998,22.0
526006.853,4694122.012,15.012,22.0
526003.949,4694120.241,15.016000000000002,22.0
526007.141,4694121.475,15.131999999999998,22.0
526006.988,4694121.488,15.195,22.0
526006.89,4694121.846,15.2,22.0
526006.873,4694121.595,15.29,22.0
526007.129,4694121.6,15.348000000000003,22.0
526003.773,4694119.771,15.634,22.0
526003.696,4694120.322,15.687000000000001,22.0
526003.597,4694120.589,15.912,22.0
526003.345,4694120.581,16.162,22.0
526003.663,4694119.886,16.204,22.0
526003.562,4694120.859,16.388,22.0
526003.842,4694121.046,16.498,22.0
526003.561,4694121.0,16.704,22.0
526003.485,4694120.114,17.411,22.0
526003.567,4694120.214,17.52,22.0
526003.716,4694147.478,2.528,23.0
526003.623,4694147.732,2.707,23.0
526004.438,4694147.678,2.719,23.0
526004.235,4694147.897,2.725,23.0
526004.289,4694147.395,2.807,23.0
526003.675,4694148.416,2.828,23.0
526004.693,4694147.389,2.839,23.0
526004.013,4694148.278,2.872,23.0
526004.868,4694147.465,2.878,23.0
526004.687,4694147.739,2.88,23.0
526004.383,4694147.182,2.885,23.0
526004.505,4694147.246,2.888,23.0
526004.939,4694147.232,2.908,23.0
526004.185,4694148.608,2.911,23.0
526003.862,4694147.95,2.94,23.0
526004.593,4694149.162,2.96,23.0
526004.753,4694147.706,2.966,23.0
526003.727,4694148.743,2.966,23.0
526003.795,4694148.712,2.979,23.0
526003.84,4694148.877,3.034,23.0
526004.794,4694147.911,3.059,23.0
526003.793,4694148.249,3.062,23.0
526004.772,4694148.074,3.072,23.0
526003.309,4694148.818,3.073,23.0
526004.195,4694148.905,3.084,23.0
526003.546,4694148.954,3.091,23.0
526004.134,4694149.205,3.108,23.0
526004.575,4694149.262,3.11,23.0
526003.948,4694148.294,3.117,23.0
526004.62,4694147.957,3.1240000000000006,23.0
526004.899,4694149.149,3.16,23.0
526004.295,4694147.986,3.1720000000000006,23.0
526004.244,4694149.338,3.175,23.0
526004.267,4694149.121,3.181,23.0
526003.998,4694149.374,3.252,23.0
526004.209,4694148.135,3.292,23.0
526004.754,4694149.482,3.2989999999999995,23.0
526004.781,4694148.453,3.3070000000000004,23.0
526004.766,4694148.63,3.311,23.0
526004.594,4694148.041,3.322,23.0
526004.736,4694148.326,3.349,23.0
526004.468,4694148.101,3.365,23.0
526004.769,4694148.757,3.388,23.0
526004.477,4694148.267,3.398,23.0
526004.492,4694148.753,3.402,23.0
526004.607,4694148.707,3.426,23.0
526004.448,4694148.71,3.546,23.0
526004.656,4694148.852,3.567,23.0
526003.089,4694148.775,11.153,23.0
526003.177,4694148.536,11.269,23.0
526003.181,4694148.497,11.377,23.0
526005.731,4694149.079,11.489,23.0
526003.289,4694148.555,11.491,23.0
526005.782,4694148.721,11.503,23.0
526003.371,4694148.418,11.532,23.0
526005.827,4694148.765,11.545,23.0
526005.507,4694148.799,11.552,23.0
526005.439,4694148.728,11.558,23.0
526005.417,4694148.825,11.56,23.0
526005.689,4694148.624,11.571,23.0
526005.985,4694149.198,11.759,23.0
526005.97,4694149.526,11.759,23.0
526005.866,4694149.404,11.76,23.0
526009.089,4694147.456,11.851,23.0
526008.762,4694147.417,11.92,23.0
526008.639,4694147.114,12.039,23.0
526008.48,4694147.102,12.135,23.0
526006.186,4694149.525,12.504000000000001,23.0
526006.148,4694149.903,12.924,23.0
526005.775,4694149.874,13.042,23.0
526006.213,4694148.948,13.134,23.0
526006.939,4694148.095,13.264,23.0
526006.559,4694149.024,13.265999999999998,23.0
526006.744,4694148.892,13.267,23.0
526006.402,4694148.93,13.279,23.0
526006.143,4694149.124,13.313,23.0
526006.517,4694148.5,13.316000000000003,23.0
526006.313,4694149.189,13.341000000000001,23.0
526006.836,4694148.919,13.342000000000002,23.0
526006.192,4694148.262,13.344999999999999,23.0
526006.463,4694149.678,13.347,23.0
526006.41,4694148.571,13.399,23.0
526006.599,4694148.265,13.425,23.0
526006.714,4694147.946,13.437000000000001,23.0
526006.227,4694148.53,13.447,23.0
526006.37,4694149.482,13.465999999999998,23.0
526006.151,4694149.362,13.47,23.0
526006.461,4694148.25,13.491,23.0
526006.514,4694149.272,13.497,23.0
526006.65,4694149.934,13.521,23.0
526006.404,4694149.8,13.559000000000001,23.0
526006.469,4694148.157,13.576,23.0
526006.542,4694149.609,13.594000000000001,23.0
526006.506,4694148.109,13.623999999999999,23.0
526006.438,4694147.96,13.719999999999999,23.0
526007.764,4694146.256,13.832999999999998,23.0
526008.12,4694145.579,13.884999999999998,23.0
526008.838,4694145.318,13.89,23.0
526006.862,4694146.566,13.907,23.0
526007.81,4694146.985,14.552,23.0
526008.138,4694146.037,14.673,23.0
526005.353,4694144.983,14.709,23.0
526004.959,4694144.935,14.773999999999997,23.0
526008.529,4694147.476,14.779,23.0
526008.335,4694147.477,14.780000000000001,23.0
526007.398,4694147.494,14.786,23.0
526002.769,4694148.431,14.789000000000001,23.0
526008.014,4694145.939,14.805,23.0
526008.038,4694147.25,14.833000000000002,23.0
526007.542,4694147.222,14.834,23.0
526005.272,4694145.185,14.837,23.0
526008.015,4694147.235,14.872,23.0
526008.771,4694147.561,14.905999999999999,23.0
526007.677,4694147.361,14.907,23.0
526007.718,4694147.557,14.934,23.0
526005.036,4694144.997,14.963000000000001,23.0
526007.843,4694147.21,14.971,23.0
526002.774,4694148.521,15.049,23.0
526005.052,4694145.243,15.131999999999998,23.0
526004.738,4694145.609,15.163,23.0
526006.836,4694148.552,15.195,23.0
526004.877,4694145.219,15.279999999999998,23.0
526004.88,4694145.458,15.327,23.0
526005.074,4694145.776,15.34,23.0
526004.921,4694145.547,15.363,23.0
526004.994,4694145.815,15.38,23.0
526006.974,4694149.419,15.398,23.0
526005.0,4694145.334,15.401,23.0
526005.094,4694145.724,15.436,23.0
526007.399,4694148.32,15.454999999999998,23.0
526007.092,4694148.262,15.479,23.0
526006.92,4694149.018,15.52,23.0
526005.438,4694145.348,15.529,23.0
526008.865,4694147.931,15.554,23.0
526007.358,4694148.0,15.559999999999999,23.0
526006.996,4694148.353,15.562,23.0
526005.439,4694145.782,15.587,23.0
526007.189,4694147.872,15.619,23.0
526007.388,4694147.753,15.622,23.0
526007.091,4694148.073,15.631,23.0
526005.496,4694145.571,15.683,23.0
526007.507,4694146.352,15.951999999999998,23.0
526007.22,4694146.502,15.972,23.0
526007.5,4694146.171,15.974,23.0
526009.0,4694145.017,16.033,23.0
526007.33,4694146.534,16.12,23.0
526008.54,4694147.634,16.156,23.0
526008.571,4694144.789,16.186,23.0
526009.075,4694144.868,16.213,23.0
526008.658,4694145.145,16.295,23.0
526008.682,4694145.296,16.331,23.0
526007.648,4694147.99,16.514,23.0
526007.832,4694147.487,16.54,23.0
526008.335,4694147.678,16.547,23.0
526008.951,4694145.012,16.562,23.0
526007.209,4694148.744,16.691,23.0
526008.266,4694145.698,16.719,23.0
526008.317,4694147.953,16.746,23.0
526007.599,4694148.214,16.802,23.0
526008.074,4694148.002,16.882,23.0
526007.999,4694148.091,16.889,23.0
526007.907,4694147.863,16.893,23.0
526008.277,4694148.011,16.905,23.0
526007.97,4694147.622,16.969,23.0
526007.189,4694148.919,16.973,23.0
526006.526,4694145.702,17.011,23.0
526008.349,4694145.225,17.014,23.0
526006.436,4694146.038,17.033,23.0
526006.699,4694146.331,17.049,23.0
526006.527,4694145.913,17.054,23.0
526008.049,4694147.851,17.054,23.0
526008.434,4694145.311,17.067,23.0
526006.489,4694145.749,17.075,23.0
526008.84,4694144.826,17.085,23.0
526007.416,4694149.117,17.09,23.0
526008.176,4694147.73,17.096,23.0
526007.209,4694149.198,17.111,23.0
526008.114,4694145.351,17.124,23.0
526006.34,4694145.967,17.139,23.0
526007.499,4694148.914,17.214,23.0
526007.779,4694145.787,17.251,23.0
526007.455,4694148.606,17.289,23.0
526007.209,4694146.316,17.329,23.0
526006.697,4694146.134,17.339,23.0
526006.994,4694149.632,17.356,23.0
526007.788,4694146.006,17.362,23.0
526007.47,4694146.268,17.373,23.0
526006.753,4694146.298,17.505,23.0
526007.137,4694146.09,17.541,23.0
526007.418,4694145.786,17.551,23.0
526007.291,4694149.661,17.591,23.0
526007.696,4694145.937,17.593,23.0
526007.287,4694149.989,17.615,23.0
526007.39,4694149.49,17.64,23.0
526007.37,4694146.209,17.659,23.0
526007.095,4694149.499,17.66,23.0
526007.083,4694149.621,17.675,23.0
526006.961,4694145.797,17.717,23.0
526006.894,4694146.035,17.73,23.0
526008.819,4694144.689,17.736,23.0
526006.985,4694149.914,17.76,23.0
526007.148,4694145.897,17.784,23.0
526008.709,4694147.985,17.821,23.0
526008.449,4694148.263,17.829,23.0
526007.215,4694149.765,17.846,23.0
526008.447,4694144.759,17.847,23.0
526008.6,4694144.561,17.866,23.0
526008.083,4694148.445,17.883,23.0
526008.731,4694148.327,17.902,23.0
526008.738,4694148.22,17.967,23.0
526008.832,4694144.461,17.995,23.0
526007.635,4694148.765,18.083,23.0
526007.703,4694148.552,18.087,23.0
526007.953,4694148.356,18.136,23.0
526007.725,4694148.483,18.146,23.0
526009.099,4694147.984,18.174,23.0
526008.811,4694148.065,18.192,23.0
526008.132,4694148.67,18.192,23.0
526009.028,4694148.038,18.193,23.0
526009.251,4694148.203,18.216,23.0
526008.437,4694148.83,18.231,23.0
526008.486,4694148.678,18.255,23.0
526008.616,4694148.988,18.258,23.0
526007.839,4694145.535,18.588,23.0
526008.136,4694148.846,18.593,23.0
526007.862,4694148.747,18.613,23.0
526008.861,4694148.366,18.622,23.0
526008.408,4694144.734,18.646,23.0
526008.737,4694148.552,18.682,23.0
526007.971,4694148.814,18.703,23.0
526006.669,4694145.315,18.75,23.0
526006.801,4694145.597,18.877,23.0
526007.605,4694149.439,18.901,23.0
526007.694,4694149.626,18.902,23.0
526007.821,4694149.875,18.902,23.0
526007.712,4694149.167,18.933,23.0
526009.016,4694148.409,18.935,23.0
526008.964,4694148.574,19.028,23.0
526009.317,4694148.414,19.044,23.0
526007.728,4694149.915,19.119,23.0
526007.981,4694149.674,19.186,23.0
526007.937,4694149.272,19.423,23.0
526007.953,4694149.166,19.468,23.0
526008.191,4694149.151,19.653,23.0
526008.246,4694149.463,19.717,23.0
526008.187,4694149.68,19.774,23.0
526008.2,4694149.765,19.785,23.0
526008.266,4694149.501,19.904,23.0
526008.383,4694149.231,20.028,23.0
526008.377,4694149.326,20.102,23.0
526008.537,4694149.436,20.184,23.0
526008.676,4694149.672,20.198,23.0
526008.688,4694149.169,20.302,23.0
526008.474,4694149.877,20.56,23.0
526008.574,4694149.924,20.666,23.0
526022.535,4694149.647,11.093,24.0
526016.66,4694147.963,12.776999999999997,24.0
526016.925,4694147.908,12.842,24.0
526016.878,4694148.232,12.956,24.0
526021.701,4694149.446,13.648,24.0
526021.68,4694149.618,13.713,24.0
526021.999,4694149.461,13.766,24.0
526022.073,4694149.156,13.779,24.0
526021.931,4694149.229,13.813000000000002,24.0
526021.793,4694149.711,13.835,24.0
526022.216,4694149.464,13.909000000000002,24.0
526022.299,4694149.438,13.954,24.0
526021.349,4694149.965,14.248000000000001,24.0
526021.712,4694149.972,14.457,24.0
526017.678,4694149.387,14.483,24.0
526017.707,4694149.65,14.572,24.0
526017.233,4694148.072,14.69,24.0
526017.206,4694148.809,14.752,24.0
526017.892,4694149.911,14.798000000000002,24.0
526017.333,4694149.298,14.84,24.0
526017.248,4694149.284,14.861,24.0
526017.275,4694149.151,14.864,24.0
526017.15,4694149.133,14.885000000000002,24.0
526018.161,4694149.857,14.933,24.0
526017.708,4694149.871,14.937000000000001,24.0
526021.879,4694149.986,14.948,24.0
526017.452,4694148.059,14.961,24.0
526022.064,4694149.734,15.026999999999997,24.0
526016.95,4694148.433,15.061999999999998,24.0
526017.413,4694148.446,15.067,24.0
526017.028,4694148.404,15.073,24.0
526017.474,4694147.952,15.182000000000002,24.0
526022.602,4694149.993,15.212,24.0
526022.239,4694149.922,15.322,24.0
526022.335,4694149.713,15.329,24.0
526017.274,4694148.945,15.349999999999998,24.0
526021.009,4694149.765,15.405,24.0
526017.223,4694148.744,15.448,24.0
526017.312,4694148.74,15.482,24.0
526017.198,4694147.757,15.512,24.0
526022.438,4694149.894,15.541999999999998,24.0
526019.279,4694145.489,15.873999999999999,24.0
526019.586,4694149.695,16.264,24.0
526019.884,4694149.721,16.328,24.0
526017.748,4694148.474,16.464,24.0
526019.567,4694149.953,16.511,24.0
526019.93,4694149.774,16.607,24.0
526019.376,4694149.495,16.732,24.0
526021.398,4694148.062,16.742,24.0
526020.082,4694149.962,16.788,24.0
526021.708,4694147.867,16.894,24.0
526021.087,4694148.386,16.926,24.0
526020.763,4694149.894,16.935,24.0
526021.053,4694148.515,17.05,24.0
526019.087,4694149.73,17.061,24.0
526018.811,4694149.721,17.094,24.0
526020.629,4694149.919,17.111,24.0
526020.988,4694148.706,17.128,24.0
526020.949,4694147.549,17.155,24.0
526020.48,4694149.862,17.194,24.0
526019.268,4694149.966,17.21,24.0
526020.192,4694146.72,17.234,24.0
526019.027,4694149.992,17.256,24.0
526019.3,4694149.734,17.339,24.0
526017.925,4694148.426,17.365,24.0
526020.501,4694146.39,17.369,24.0
526018.826,4694149.99,17.385,24.0
526018.432,4694146.362,17.423,24.0
526019.056,4694149.348,17.43,24.0
526020.97,4694148.957,17.464,24.0
526021.226,4694147.759,17.467,24.0
526018.592,4694146.105,17.489,24.0
526020.824,4694149.615,17.517,24.0
526021.182,4694148.904,17.531,24.0
526018.613,4694149.82,17.555,24.0
526021.238,4694147.739,17.561,24.0
526021.151,4694149.036,17.581,24.0
526021.229,4694147.376,17.585,24.0
526021.327,4694149.248,17.599,24.0
526018.343,4694146.186,17.607,24.0
526021.236,4694147.246,17.613,24.0
526017.932,4694146.363,17.615,24.0
526020.207,4694149.388,17.617,24.0
526021.566,4694147.597,17.624,24.0
526020.495,4694149.12,17.629,24.0
526020.442,4694146.716,17.645,24.0
526018.643,4694149.5,17.649,24.0
526018.58,4694145.97,17.655,24.0
526021.362,4694147.823,17.656,24.0
526018.307,4694149.845,17.695,24.0
526020.769,4694149.045,17.725,24.0
526017.933,4694146.101,17.775,24.0
526020.841,4694149.365,17.783,24.0
526020.146,4694149.628,17.794,24.0
526020.541,4694148.749,17.798,24.0
526020.268,4694149.428,17.798,24.0
526020.494,4694146.011,17.817,24.0
526020.01,4694146.395,17.835,24.0
526018.041,4694146.019,17.842,24.0
526017.994,4694145.872,17.86,24.0
526021.237,4694149.549,17.873,24.0
526017.933,4694148.742,17.878,24.0
526021.177,4694149.432,17.879,24.0
526017.921,4694145.7,17.889,24.0
526020.746,4694149.139,17.891,24.0
526018.473,4694148.668,17.897,24.0
526020.521,4694148.78,17.9,24.0
526020.469,4694146.416,17.905,24.0
526017.779,4694148.791,17.905,24.0
526017.655,4694148.718,17.907,24.0
526021.488,4694147.605,17.908,24.0
526020.703,4694146.728,17.911,24.0
526017.613,4694148.92,17.913,24.0
526021.512,4694147.231,17.925,24.0
526021.47,4694147.496,17.93,24.0
526018.07,4694148.721,17.931,24.0
526021.298,4694149.595,17.935,24.0
526021.572,4694147.254,17.946,24.0
526020.673,4694149.305,17.946,24.0
526021.483,4694147.223,17.971,24.0
526020.899,4694146.722,17.983,24.0
526020.422,4694149.586,17.983,24.0
526021.259,4694149.41,17.986,24.0
526020.548,4694149.625,17.996,24.0
526018.188,4694148.886,18.01,24.0
526018.419,4694148.988,18.038,24.0
526018.222,4694145.835,18.049,24.0
526018.491,4694145.845,18.053,24.0
526017.665,4694149.099,18.057,24.0
526020.927,4694146.869,18.068,24.0
526020.583,4694147.923,18.099,24.0
526020.65,4694147.652,18.1,24.0
526017.864,4694149.127,18.123,24.0
526018.394,4694145.715,18.136,24.0
526017.68,4694147.552,18.176,24.0
526018.189,4694145.711,18.18,24.0
526018.73,4694148.877,18.256,24.0
526020.123,4694146.104,18.289,24.0
526017.867,4694147.707,18.365,24.0
526018.994,4694145.85,18.371,24.0
526020.699,4694148.148,18.383,24.0
526019.082,4694145.989,18.387,24.0
526020.892,4694147.01,18.389,24.0
526018.969,4694146.048,18.399,24.0
526017.719,4694147.932,18.401,24.0
526018.387,4694149.308,18.419,24.0
526017.993,4694149.49,18.422,24.0
526018.849,4694149.163,18.425,24.0
526018.566,4694146.749,18.451,24.0
526018.745,4694146.495,18.485,24.0
526018.536,4694149.236,18.492,24.0
526017.682,4694148.063,18.501,24.0
526020.991,4694147.992,18.504,24.0
526018.199,4694149.189,18.504,24.0
526018.346,4694149.216,18.513,24.0
526018.094,4694149.693,18.513,24.0
526019.181,4694146.234,18.539,24.0
526020.804,4694147.342,18.546,24.0
526017.969,4694149.59,18.551,24.0
526018.76,4694149.35,18.596,24.0
526020.911,4694148.296,18.599,24.0
526020.477,4694148.172,18.604,24.0
526018.593,4694149.368,18.613,24.0
526018.103,4694149.483,18.636,24.0
526019.236,4694145.728,18.643,24.0
526020.634,4694147.267,18.651,24.0
526021.041,4694148.001,18.653,24.0
526020.658,4694147.011,18.678,24.0
526020.721,4694146.905,18.684,24.0
526017.979,4694148.108,18.691,24.0
526018.293,4694149.58,18.759,24.0
526020.969,4694148.104,18.76,24.0
526017.985,4694147.951,18.761,24.0
526019.581,4694145.845,18.783,24.0
526020.24,4694148.713,18.784,24.0
526019.497,4694145.742,18.812,24.0
526019.556,4694145.52,18.823,24.0
526019.437,4694145.917,18.838,24.0
526020.304,4694148.775,18.838,24.0
526018.258,4694146.539,18.84,24.0
526020.509,4694148.411,18.852,24.0
526018.185,4694146.447,18.853,24.0
526020.031,4694148.268,18.88,24.0
526020.48,4694148.429,18.913,24.0
526019.442,4694146.244,18.941,24.0
526017.996,4694147.294,18.967,24.0
526020.42,4694148.68,19.001,24.0
526020.119,4694148.243,19.019,24.0
526018.018,4694146.619,19.043,24.0
526018.176,4694147.009,19.086,24.0
526019.526,4694146.057,19.252,24.0
526017.794,4694147.001,19.287,24.0
526017.743,4694147.037,19.311,24.0
526019.758,4694149.358,19.314,24.0
526019.728,4694148.304,19.334,24.0
526018.066,4694148.069,19.342,24.0
526020.311,4694146.988,19.377,24.0
526018.35,4694147.868,19.385,24.0
526017.922,4694146.674,19.411,24.0
526017.949,4694146.907,19.466,24.0
526018.682,4694148.496,19.55,24.0
526019.752,4694148.485,19.572,24.0
526018.175,4694147.899,19.575,24.0
526019.795,4694146.365,19.587,24.0
526019.498,4694149.05,19.603,24.0
526019.779,4694146.164,19.615,24.0
526019.753,4694146.678,19.62,24.0
526020.312,4694147.171,19.625,24.0
526019.343,4694148.752,19.633,24.0
526020.091,4694148.9,19.666,24.0
526019.842,4694148.692,19.676,24.0
526018.554,4694146.937,19.678,24.0
526019.63,4694146.273,19.683,24.0
526020.044,4694146.924,19.683,24.0
526020.016,4694149.146,19.692,24.0
526019.707,4694148.51,19.694,24.0
526019.303,4694148.397,19.695,24.0
526018.715,4694147.151,19.729,24.0
526018.248,4694146.987,19.738,24.0
526020.154,4694147.244,19.744,24.0
526019.645,4694147.324,19.777,24.0
526018.72,4694148.631,19.777,24.0
526018.286,4694148.489,19.791,24.0
526019.345,4694148.525,19.791,24.0
526018.262,4694146.967,19.802,24.0
526019.794,4694147.58,19.804,24.0
526018.266,4694148.245,19.804,24.0
526018.088,4694148.32,19.806,24.0
526018.689,4694148.185,19.837,24.0
526018.997,4694146.95,19.88,24.0
526018.287,4694147.19,19.889,24.0
526019.626,4694146.746,19.893,24.0
526019.67,4694149.07,19.893,24.0
526020.387,4694147.475,19.905,24.0
526019.106,4694148.769,19.906,24.0
526020.076,4694147.78,19.908,24.0
526018.992,4694146.74,19.937,24.0
526019.99,4694147.901,19.944,24.0
526018.23,4694147.625,19.95,24.0
526019.778,4694148.872,19.961,24.0
526019.611,4694148.949,19.972,24.0
526020.308,4694147.78,19.978,24.0
526019.711,4694146.94,20.002,24.0
526019.702,4694149.343,20.003,24.0
526019.267,4694146.376,20.019,24.0
526018.215,4694147.339,20.02,24.0
526018.332,4694147.547,20.023,24.0
526019.029,4694148.69,20.023,24.0
526019.756,4694147.014,20.03,24.0
526019.399,4694146.657,20.052,24.0
526018.299,4694147.453,20.053,24.0
526018.987,4694148.693,20.058,24.0
526019.834,4694149.145,20.059,24.0
526019.771,4694147.278,20.06,24.0
526019.809,4694146.979,20.064,24.0
526019.702,4694147.083,20.08,24.0
526019.08,4694146.343,20.082,24.0
526018.953,4694146.453,20.086,24.0
526020.086,4694147.265,20.098,24.0
526020.179,4694147.628,20.106,24.0
526020.323,4694147.603,20.123,24.0
526018.978,4694148.324,20.148,24.0
526018.953,4694148.904,20.158,24.0
526019.0,4694149.022,20.16,24.0
526019.817,4694148.017,20.177,24.0
526019.047,4694148.251,20.216,24.0
526019.091,4694146.507,20.251,24.0
526019.316,4694146.927,20.257,24.0
526019.676,4694148.164,20.257,24.0
526019.265,4694147.025,20.669,24.0
526019.097,4694146.969,20.747,24.0
526019.574,4694147.563,20.849,24.0
526019.341,4694148.118,20.869,24.0
526019.321,4694147.834,20.917,24.0
526019.051,4694147.174,20.944,24.0
526019.293,4694147.715,20.968,24.0
526018.671,4694147.812,20.999,24.0
526018.936,4694147.213,21.055,24.0
526018.642,4694147.64,21.124,24.0
526019.508,4694147.875,21.153,24.0
526018.974,4694148.097,21.21,24.0
526019.142,4694147.826,21.279,24.0
526019.152,4694148.119,21.298,24.0
526019.143,4694147.414,21.324,24.0
526019.116,4694147.685,21.332,24.0
526018.742,4694147.456,21.341,24.0
526018.93,4694147.427,21.358,24.0
526019.265,4694147.379,21.368,24.0
526018.966,4694147.849,21.391,24.0
526018.923,4694147.587,21.396,24.0
526013.238,4694138.735,6.361000000000001,25.0
526013.4,4694138.893,6.425,25.0
526013.725,4694139.548,6.504,25.0
526013.342,4694138.557,6.82,25.0
526013.454,4694138.407,6.832000000000001,25.0
526013.583,4694138.125,6.868,25.0
526013.497,4694138.01,6.889000000000001,25.0
526013.241,4694138.033,6.926,25.0
526013.072,4694137.971,7.003,25.0
526012.876,4694137.887,7.054,25.0
526012.329,4694138.045,9.141,25.0
526010.693,4694138.439,9.191,25.0
526012.008,4694138.415,9.316,25.0
526010.885,4694138.218,9.327,25.0
526010.902,4694137.866,9.335,25.0
526012.122,4694138.076,9.406,25.0
526012.876,4694137.579,9.449,25.0
526011.93,4694137.531,9.502,25.0
526012.268,4694137.754,9.514,25.0
526012.658,4694137.784,9.515,25.0
526012.511,4694137.582,9.541,25.0
526012.231,4694137.769,9.546,25.0
526012.279,4694137.571,9.555,25.0
526012.569,4694136.985,9.668,25.0
526012.107,4694137.533,9.672,25.0
526012.625,4694137.274,9.722,25.0
526012.728,4694137.221,9.74,25.0
526012.376,4694137.381,9.746,25.0
526012.18,4694136.851,9.774,25.0
526012.204,4694137.006,9.823,25.0
526012.311,4694137.015,9.835,25.0
526012.282,4694136.817,9.974,25.0
526013.352,4694139.203,10.057,25.0
526012.897,4694139.576,10.071,25.0
526012.92,4694139.343,10.074,25.0
526013.068,4694139.516,10.079,25.0
526013.692,4694139.074,10.134,25.0
526013.735,4694138.918,10.155,25.0
526013.21,4694139.36,10.165,25.0
526013.971,4694139.105,10.183,25.0
526014.522,4694138.75,10.221,25.0
526013.197,4694139.228,10.245,25.0
526013.148,4694138.991,10.264,25.0
526014.001,4694138.691,10.265,25.0
526014.633,4694138.335,10.272,25.0
526014.094,4694138.311,10.28,25.0
526014.513,4694137.935,10.288,25.0
526014.703,4694138.081,10.31,25.0
526014.378,4694138.276,10.313,25.0
526014.461,4694138.552,10.313,25.0
526014.466,4694138.203,10.319,25.0
526013.968,4694138.957,10.337,25.0
526013.688,4694138.65,10.349,25.0
526013.826,4694138.433,10.35,25.0
526013.791,4694138.553,10.351,25.0
526013.648,4694138.441,10.404,25.0
526011.654,4694137.969,10.69,25.0
526010.974,4694138.358,10.698,25.0
526011.762,4694137.935,10.74,25.0
526014.246,4694139.812,11.615,25.0
526012.547,4694139.56,11.764,25.0
526012.353,4694138.478,11.981,25.0
526012.752,4694139.055,12.047,25.0
526012.4,4694138.591,12.138000000000002,25.0
526012.952,4694138.462,12.229,25.0
526012.873,4694138.712,12.268,25.0
526012.845,4694138.809,12.279999999999998,25.0
526012.664,4694138.477,12.303,25.0
526012.725,4694138.737,12.353,25.0
526014.487,4694139.791,12.36,25.0
526014.028,4694139.562,12.476,25.0
526013.96,4694139.37,12.493,25.0
526012.527,4694140.754,12.529,25.0
526014.361,4694139.353,12.532999999999998,25.0
526014.323,4694139.601,12.605,25.0
526012.347,4694140.651,12.606,25.0
526014.209,4694139.251,12.629999999999999,25.0
526012.564,4694139.998,12.648,25.0
526012.63,4694140.528,12.648,25.0
526012.911,4694137.193,12.669,25.0
526015.851,4694138.08,12.735,25.0
526012.975,4694140.024,12.757000000000001,25.0
526012.833,4694140.4,12.776999999999997,25.0
526014.356,4694139.06,12.782,25.0
526012.883,4694140.602,12.783000000000001,25.0
526013.744,4694136.519,12.792000000000002,25.0
526014.039,4694139.194,12.818000000000001,25.0
526013.487,4694136.611,12.829999999999998,25.0
526014.192,4694138.803,12.837,25.0
526014.281,4694138.951,12.843,25.0
526012.968,4694139.873,12.896,25.0
526013.202,4694140.044,12.914000000000001,25.0
526013.082,4694140.367,12.915,25.0
526012.93,4694136.856,13.055,25.0
526013.837,4694136.904,13.073,25.0
526013.155,4694136.727,13.161999999999999,25.0
526012.543,4694139.301,13.216,25.0
526011.797,4694139.861,13.252,25.0
526014.011,4694137.234,13.256,25.0
526013.336,4694137.922,13.271,25.0
526016.136,4694137.432,13.282,25.0
526013.928,4694137.228,13.326999999999998,25.0
526012.179,4694139.448,13.328,25.0
526013.983,4694137.808,13.342000000000002,25.0
526014.905,4694137.558,13.348,25.0
526015.962,4694137.149,13.349,25.0
526012.232,4694139.687,13.351000000000003,25.0
526014.132,4694138.04,13.352999999999998,25.0
526012.431,4694139.738,13.385000000000002,25.0
526012.29,4694139.378,13.391,25.0
526012.504,4694138.95,13.409,25.0
526013.759,4694137.385,13.416,25.0
526016.028,4694137.627,13.422999999999998,25.0
526012.072,4694139.078,13.43,25.0
526013.563,4694136.962,13.437000000000001,25.0
526012.178,4694138.716,13.465999999999998,25.0
526013.243,4694136.886,13.466999999999999,25.0
526011.878,4694141.696,13.479,25.0
526011.223,4694138.12,13.482,25.0
526013.473,4694136.938,13.492,25.0
526012.504,4694139.131,13.494,25.0
526015.897,4694138.453,13.501999999999999,25.0
526013.997,4694138.018,13.506,25.0
526014.235,4694137.274,13.526999999999997,25.0
526010.452,4694138.849,13.526999999999997,25.0
526014.268,4694137.92,13.531,25.0
526013.764,4694137.716,13.532,25.0
526014.087,4694137.632,13.538,25.0
526015.8,4694137.3,13.548,25.0
526014.225,4694137.952,13.55,25.0
526013.68,4694137.106,13.557,25.0
526012.397,4694138.805,13.565,25.0
526015.218,4694137.737,13.59,25.0
526012.431,4694139.074,13.592,25.0
526014.952,4694137.751,13.595000000000002,25.0
526011.842,4694138.461,13.597999999999999,25.0
526015.774,4694137.898,13.605,25.0
526015.509,4694138.287,13.61,25.0
526015.469,4694137.255,13.613,25.0
526014.448,4694137.503,13.614,25.0
526011.573,4694138.636,13.619,25.0
526013.617,4694137.796,13.630000000000003,25.0
526012.956,4694137.436,13.633,25.0
526015.077,4694137.864,13.635,25.0
526015.798,4694137.603,13.651,25.0
526015.288,4694137.746,13.674,25.0
526015.707,4694137.259,13.675999999999998,25.0
526015.252,4694137.881,13.682000000000002,25.0
526014.229,4694141.032,13.691000000000003,25.0
526011.603,4694138.191,13.708000000000002,25.0
526011.551,4694138.345,13.713,25.0
526013.114,4694137.552,13.714,25.0
526015.558,4694138.203,13.719999999999999,25.0
526011.83,4694138.554,13.719999999999999,25.0
526015.57,4694137.633,13.725000000000001,25.0
526015.951,4694138.519,13.73,25.0
526015.739,4694137.178,13.736999999999998,25.0
526011.769,4694138.249,13.759,25.0
526011.457,4694138.22,13.766,25.0
526012.357,4694141.604,13.788,25.0
526013.145,4694137.172,13.79,25.0
526014.733,4694138.591,13.8,25.0
526013.277,4694137.103,13.817,25.0
526013.214,4694137.481,13.823,25.0
526015.612,4694137.874,13.823,25.0
526013.546,4694137.531,13.835,25.0
526012.224,4694139.938,13.84,25.0
526016.03,4694138.511,13.847000000000001,25.0
526011.461,4694138.464,13.900000000000002,25.0
526013.504,4694137.359,13.935000000000002,25.0
526015.32,4694138.572,13.942,25.0
526011.821,4694138.882,13.998999999999999,25.0
526011.803,4694139.582,14.003,25.0
526012.149,4694140.416,14.005000000000003,25.0
526015.295,4694138.089,14.021,25.0
526011.876,4694139.316,14.076999999999998,25.0
526014.302,4694140.136,14.102999999999998,25.0
526013.376,4694137.468,14.114,25.0
526012.132,4694138.995,14.137,25.0
526011.752,4694139.185,14.165,25.0
526012.225,4694140.103,14.174,25.0
526014.968,4694138.123,14.181999999999999,25.0
526010.693,4694138.589,14.187000000000001,25.0
526011.805,4694140.706,14.211,25.0
526012.289,4694139.962,14.223000000000003,25.0
526013.298,4694137.638,14.224999999999998,25.0
526012.379,4694140.334,14.232,25.0
526012.173,4694140.73,14.259999999999998,25.0
526012.693,4694140.135,14.262,25.0
526015.041,4694138.17,14.263,25.0
526012.679,4694140.483,14.289,25.0
526012.399,4694140.234,14.302,25.0
526014.285,4694140.321,14.324,25.0
526013.955,4694140.327,14.36,25.0
526014.327,4694140.521,14.454,25.0
526015.463,4694138.496,14.46,25.0
526012.001,4694140.893,14.524,25.0
526014.229,4694136.752,14.534,25.0
526015.629,4694138.657,14.543,25.0
526015.63,4694138.758,14.565999999999999,25.0
526014.363,4694136.774,14.590999999999998,25.0
526014.076,4694140.485,14.612,25.0
526013.97,4694140.908,14.624000000000002,25.0
526012.322,4694141.12,14.652999999999999,25.0
526012.348,4694141.265,14.654,25.0
526012.359,4694140.794,14.689,25.0
526014.043,4694140.909,14.726,25.0
526015.068,4694138.94,14.728000000000002,25.0
526015.13,4694138.475,14.729,25.0
526011.646,4694139.255,14.769,25.0
526014.363,4694137.305,14.789000000000001,25.0
526013.924,4694140.621,14.791999999999998,25.0
526014.443,4694137.166,14.828,25.0
526014.971,4694138.549,14.877000000000002,25.0
526014.933,4694138.358,14.886,25.0
526015.037,4694138.595,14.893,25.0
526014.749,4694136.937,14.898,25.0
526014.124,4694140.57,14.929000000000002,25.0
526015.079,4694137.202,14.935,25.0
526015.264,4694137.165,14.936,25.0
526011.024,4694138.462,14.974,25.0
526015.242,4694137.279,15.031,25.0
526010.972,4694138.678,15.039,25.0
526011.695,4694138.91,15.079,25.0
526014.706,4694137.26,15.114,25.0
526014.569,4694137.104,15.137,25.0
526014.828,4694137.292,15.137,25.0
526014.979,4694140.031,15.208000000000002,25.0
526014.743,4694140.012,15.258,25.0
526011.557,4694139.05,15.295000000000002,25.0
526011.299,4694139.5,15.317,25.0
526014.869,4694139.855,15.357,25.0
526011.251,4694138.565,15.367,25.0
526011.254,4694139.457,15.374000000000002,25.0
526014.627,4694139.805,15.378,25.0
526011.304,4694138.808,15.393,25.0
526014.907,4694137.0,15.404,25.0
526012.064,4694141.522,15.41,25.0
526011.167,4694138.676,15.475,25.0
526011.178,4694138.796,15.493,25.0
526011.256,4694139.041,15.582,25.0
526014.651,4694139.554,15.629999999999999,25.0
526012.011,4694141.338,15.7,25.0
526012.011,4694141.234,15.756,25.0
526014.702,4694139.324,15.773,25.0
526010.937,4694138.916,15.783000000000001,25.0
526015.239,4694140.096,15.849,25.0
526014.925,4694138.964,15.877,25.0
526014.689,4694139.169,15.892,25.0
526010.478,4694139.098,15.895,25.0
526010.529,4694138.956,15.896,25.0
526011.842,4694141.28,15.913,25.0
526014.464,4694136.642,15.929,25.0
526010.942,4694139.214,16.091,25.0
526015.33,4694140.16,16.149,25.0
526011.123,4694139.459,16.158,25.0
526015.09,4694139.63,16.225,25.0
526015.328,4694139.531,16.233,25.0
526011.07,4694139.222,16.245,25.0
526014.983,4694139.164,16.246,25.0
526015.011,4694139.775,16.307,25.0
526015.366,4694139.272,16.343,25.0
526015.471,4694138.884,16.386,25.0
526014.963,4694139.308,16.399,25.0
526014.911,4694139.558,16.432,25.0
526015.169,4694139.271,16.463,25.0
526015.457,4694139.198,16.531,25.0
526011.507,4694139.696,16.533,25.0
526015.471,4694141.114,16.564,25.0
